ply
format ascii 1.0
element vertex 1227
property float x
property float y
property float z
property uchar red
property uchar green
property uchar blue
end_header
0.350934 0.181966 -3.327376 129 61 78
0.363932 0.181966 -3.327376 133 61 85
0.376929 0.181966 -3.327376 137 65 89
0.389927 0.181966 -3.327376 134 72 87
0.404238 0.182559 -3.338223 136 74 89
0.414239 0.181230 -3.313916 141 78 91
0.427530 0.181377 -3.316599 140 77 90
0.440486 0.181377 -3.316599 140 77 88
0.454545 0.181818 -3.324675 143 80 91
0.467532 0.181818 -3.324675 147 86 87
0.480519 0.181818 -3.324675 147 86 87
0.494309 0.182114 -3.330081 145 85 77
0.507317 0.182114 -3.330081 144 84 76
0.523732 0.183306 -3.351882 146 92 75
0.536825 0.183306 -3.351882 153 99 82
0.550369 0.183456 -3.354627 151 95 88
0.566255 0.184362 -3.371193 151 95 88
0.582781 0.185430 -3.390728 154 97 97
0.598007 0.186047 -3.401993 158 101 101
0.609776 0.185584 -3.393538 132 117 103
0.626145 0.186511 -3.410491 141 126 112
0.648649 0.189189 -3.459460 131 138 123
0.662162 0.189189 -3.459460 96 103 88
0.674536 0.188870 -3.453626 59 68 67
0.687447 0.188711 -3.450716 43 52 51
0.699748 0.188394 -3.444912 28 42 55
0.713805 0.188552 -3.447811 30 44 57
0.726050 0.188235 -3.442017 30 39 63
0.738255 0.187919 -3.436242 30 39 63
0.752941 0.188235 -3.442017 28 38 73
1.022421 0.251121 -4.591928 28 38 73
1.035714 0.250000 -4.571429 31 39 70
1.045404 0.248062 -4.535991 32 40 71
1.053787 0.245884 -4.496158 33 41 72
1.067834 0.245077 -4.481400 34 42 73
1.087719 0.245614 -4.491228 34 42 77
1.105263 0.245614 -4.491228 31 39 74
1.171171 0.252252 -4.612613 21 32 64
2.081553 0.434951 -7.953398 185 203 224
3.886435 0.706625 -12.921136 33 42 70
2.810811 0.504505 -9.225225 37 41 73
2.840449 0.503371 -9.204494 37 41 73
2.876405 0.503371 -9.204494 33 47 71
2.932127 0.506787 -9.266969 32 46 70
2.968326 0.506787 -9.266969 37 39 72
3.052874 0.514943 -9.416092 40 42 75
3.013453 0.502242 -9.183857 30 42 78
3.028953 0.498886 -9.122495 68 80 116
3.024176 0.492308 -9.002198 177 187 195
3.100223 0.498886 -9.122495 121 131 139
3.142857 0.500000 -9.142858 21 30 72
5.049645 0.794326 -14.524822 35 44 86
5.106383 0.794326 -14.524822 37 44 73
5.055555 0.777778 -14.222222 37 44 73
4.729560 0.704403 -12.880503 27 52 75
4.764890 0.702194 -12.840125 30 55 78
4.668693 0.680851 -12.449848 35 63 78
4.396601 0.634561 -11.603399 48 76 91
4.441926 0.634561 -11.603399 54 81 99
4.487252 0.634561 -11.603399 49 76 94
4.199475 0.587927 -10.750656 63 84 115
4.208333 0.583333 -10.666667 61 82 113
2.242991 0.299065 -5.468625 167 211 223
2.231579 0.294737 -5.389474 236 247 252
2.252632 0.294737 -5.389474 239 250 255
2.232558 0.289406 -5.291990 252 252 252
7.312500 0.875000 -16.000000 239 255 251
7.375000 0.875000 -16.000000 186 220 224
7.437500 0.875000 -16.000000 158 192 196
4.752475 0.554455 -10.138614 111 149 168
4.780247 0.553086 -10.113581 116 154 173
4.703614 0.539759 -9.869880 157 210 203
4.847291 0.551724 -10.088670 195 248 241
6.526316 0.736842 -13.473684 200 255 254
6.849315 0.767123 -14.027397 197 255 251
6.675497 0.741722 -13.562914 193 253 253
6.533762 0.720257 -13.170418 181 241 241
6.460568 0.706625 -12.921136 176 231 235
6.511041 0.706625 -12.921136 167 222 226
6.842105 0.736842 -13.473684 161 220 225
6.963455 0.744186 -13.607973 177 236 241
7.016611 0.744186 -13.607973 195 255 253
7.069767 0.744186 -13.607973 196 255 254
8.625000 0.875000 -16.000000 194 254 254
8.687500 0.875000 -16.000000 194 254 254
8.750000 0.875000 -16.000000 192 255 252
8.233577 0.817518 -14.948905 192 255 252
8.291971 0.817518 -14.948905 191 255 254
8.601503 0.842105 -15.398497 191 255 254
9.000000 0.875000 -16.000000 194 254 254
8.754717 0.845283 -15.456604 194 254 254
9.125000 0.875000 -16.000000 190 254 255
8.875472 0.845283 -15.456604 189 253 255
8.868914 0.838951 -15.340824 192 251 255
8.606498 0.808664 -14.787004 192 251 255
8.480565 0.791519 -14.473498 190 252 255
8.477193 0.785965 -14.371930 190 252 255
8.843637 0.814545 -14.894546 189 252 255
8.934306 0.817518 -14.948905 188 251 255
8.992701 0.817518 -14.948905 185 251 255
8.763251 0.791519 -14.473498 185 251 255
8.819788 0.791519 -14.473498 186 249 255
8.876325 0.791519 -14.473498 186 249 255
9.226277 0.817518 -14.948905 184 252 255
-0.645740 0.233184 -4.591928 75 90 79
-0.625000 0.232143 -4.571429 50 65 54
-0.609865 0.233184 -4.591928 60 63 62
-0.425985 0.221512 -4.362087 98 115 109
-0.406780 0.220339 -4.338983 100 115 104
-0.390658 0.220807 -4.348196 91 106 95
-0.252189 0.182137 -3.586690 37 37 57
-0.237347 0.181501 -3.574171 30 30 50
-0.222609 0.180870 -3.561739 36 45 44
-0.207792 0.180087 -3.546320 39 48 47
-0.192605 0.178848 -3.521926 48 53 51
-0.177172 0.177172 -3.488927 49 54 52
-0.163265 0.176871 -3.482993 72 56 68
-0.148900 0.175973 -3.465313 83 67 79
-0.135364 0.175973 -3.465313 106 64 91
-0.123077 0.177778 -3.500855 103 61 88
-0.109402 0.177778 -3.500855 100 52 77
-0.095563 0.177474 -3.494880 101 53 78
-0.081494 0.176570 -3.477080 103 56 74
-0.067912 0.176570 -3.477080 101 54 72
-0.054376 0.176720 -3.480034 104 53 79
-0.040678 0.176271 -3.471186 106 55 81
-0.027073 0.175973 -3.465313 113 53 84
-0.013514 0.175676 -3.459460 113 53 84
0.000000 0.175676 -3.459460 114 57 85
0.013514 0.175676 -3.459460 112 55 83
0.027397 0.178082 -3.506849 117 53 85
0.041237 0.178694 -3.518900 119 55 87
0.069444 0.180556 -3.555556 118 53 81
0.083333 0.180556 -3.555556 116 53 76
0.097222 0.180556 -3.555556 116 53 76
0.111498 0.181185 -3.567944 118 53 88
0.125436 0.181185 -3.567944 119 54 89
0.143322 0.169381 -3.335505 117 54 95
0.155340 0.168285 -3.313916 116 56 78
0.168285 0.168285 -3.313916 118 58 80
0.182262 0.169243 -3.332791 116 60 81
0.193392 0.167607 -3.300564 115 59 80
0.205788 0.167203 -3.292604 117 53 81
0.218299 0.166934 -3.287319 114 50 78
0.231325 0.167068 -3.289960 114 56 72
0.271405 0.168013 -3.308562 115 60 73
0.281600 0.166400 -3.276800 115 57 73
0.297254 0.168013 -3.308562 116 58 74
0.308682 0.167203 -3.292604 119 58 83
0.321802 0.167337 -3.295254 121 60 85
0.334674 0.167337 -3.295254 123 60 81
0.354389 0.170632 -3.360131 122 59 80
0.367514 0.170632 -3.360131 124 59 83
0.381579 0.171053 -3.368421 128 63 87
0.394737 0.171053 -3.368421 127 67 87
0.442997 0.169381 -3.335505 128 69 83
0.456026 0.169381 -3.335505 132 73 87
0.468674 0.169243 -3.332791 137 81 85
0.480519 0.168831 -3.324675 135 79 83
0.494309 0.169106 -3.330081 134 77 77
0.507317 0.169106 -3.330081 135 78 78
0.523732 0.170213 -3.351882 138 84 74
0.536825 0.170213 -3.351882 138 84 74
0.550369 0.170352 -3.354627 139 87 81
0.574290 0.173623 -3.419032 142 90 84
0.590604 0.174497 -3.436242 138 94 96
0.604027 0.174497 -3.436242 140 96 98
0.617968 0.174643 -3.439127 125 116 109
0.635135 0.175676 -3.459460 129 120 113
0.648649 0.175676 -3.459460 97 99 105
0.662162 0.175676 -3.459460 45 47 53
0.673968 0.175232 -3.450716 34 39 62
0.687447 0.175232 -3.450716 36 41 64
0.699748 0.174937 -3.444912 34 40 74
0.712605 0.174790 -3.442017 32 38 72
0.724832 0.174497 -3.436242 26 37 67
0.735786 0.173913 -3.424749 26 37 67
0.752941 0.174790 -3.442017 28 39 71
0.768971 0.175379 -3.453626 29 40 72
1.006508 0.225597 -4.442516 32 39 70
1.031694 0.227322 -4.476503 33 40 71
1.041215 0.225597 -4.442516 34 44 65
1.057421 0.225352 -4.437703 32 42 63
1.087719 0.228070 -4.491228 34 42 66
1.102845 0.227571 -4.481400 32 40 64
1.154273 0.230855 -4.546060 33 40 69
1.189189 0.234234 -4.612613 9 36 56
1.192436 0.231368 -4.556173 86 113 133
1.221100 0.233446 -4.597082 211 227 226
3.404255 0.553191 -10.893617 33 51 72
3.297710 0.529262 -10.422392 33 51 72
3.109005 0.492891 -9.706161 47 40 85
3.146919 0.492891 -9.706161 41 34 79
3.184834 0.492891 -9.706161 48 38 102
3.230404 0.494062 -9.729217 164 154 218
3.739130 0.565217 -11.130435 161 170 196
3.782609 0.565217 -11.130435 47 56 82
4.011396 0.592593 -11.669516 33 45 79
5.000000 0.722222 -14.222222 36 42 76
4.359282 0.622755 -12.263474 36 42 76
5.111111 0.722222 -14.222222 36 44 75
4.664577 0.652038 -12.840125 39 47 78
4.571429 0.632219 -12.449848 30 55 78
4.470588 0.611765 -12.047059 33 58 81
4.314607 0.584270 -11.505618 43 71 84
4.252055 0.569863 -11.221918 48 76 89
4.241470 0.545932 -10.750656 50 63 110
4.283464 0.545932 -10.750656 45 66 115
4.269430 0.538860 -10.611399 40 61 110
2.288858 0.286107 -5.634113 45 95 105
2.282609 0.282609 -5.565217 162 212 222
2.267380 0.278075 -5.475936 220 242 239
2.252632 0.273684 -5.389474 228 250 247
2.232558 0.268734 -5.291990 245 248 249
2.253230 0.268734 -5.291990 250 253 254
7.312500 0.812500 -16.000000 214 252 246
4.710462 0.506083 -9.965937 145 190 175
4.692307 0.500000 -9.846154 141 201 190
4.730769 0.500000 -9.846154 170 230 219
6.609836 0.681967 -13.429508 188 248 250
6.430380 0.658228 -12.962026 178 238 240
6.380062 0.647975 -12.760124 173 224 229
6.450000 0.650000 -12.800000 166 217 222
6.864686 0.686469 -13.518152 156 216 216
6.963455 0.691030 -13.607973 179 239 239
6.993378 0.688742 -13.562914 196 255 253
7.046358 0.688742 -13.562914 198 255 255
7.099338 0.688742 -13.562914 196 255 254
8.562500 0.812500 -16.000000 195 255 253
8.625000 0.812500 -16.000000 196 254 255
8.687500 0.812500 -16.000000 195 253 254
8.750000 0.812500 -16.000000 193 255 255
8.812500 0.812500 -16.000000 192 255 254
8.875000 0.812500 -16.000000 190 255 255
8.601503 0.781955 -15.398497 188 255 253
9.000000 0.812500 -16.000000 192 252 254
8.721805 0.781955 -15.398497 192 252 254
9.125000 0.812500 -16.000000 193 252 255
8.875472 0.784906 -15.456604 193 252 255
8.902256 0.781955 -15.398497 190 252 255
8.606498 0.750903 -14.787004 189 251 255
8.602151 0.745520 -14.681004 189 251 255
8.597865 0.740214 -14.576512 189 251 255
8.941176 0.764706 -15.058824 187 250 255
9.000000 0.764706 -15.058824 186 249 255
9.058824 0.764706 -15.058824 184 252 255
9.051095 0.759124 -14.948905 183 251 255
9.109489 0.759124 -14.948905 185 248 254
9.167883 0.759124 -14.948905 186 249 255
9.875000 0.812500 -16.000000 185 251 255
-0.628821 0.209607 -4.471616 86 102 84
-0.604752 0.207343 -4.423326 65 81 63
-0.586207 0.206897 -4.413793 55 64 63
-0.568353 0.206674 -4.409042 51 60 59
-0.558952 0.209607 -4.471616 47 57 67
-0.506550 0.209607 -4.471616 56 65 80
-0.482239 0.206674 -4.409042 64 69 83
-0.462527 0.205567 -4.385439 73 78 92
-0.444920 0.205348 -4.380749 79 96 90
-0.425532 0.204255 -4.357447 95 112 106
-0.407643 0.203822 -4.348196 86 100 92
-0.391489 0.204255 -4.357447 93 107 99
-0.251969 0.167979 -3.583552 39 41 56
-0.236522 0.166957 -3.561739 34 36 51
-0.222222 0.166667 -3.555556 40 41 52
-0.208696 0.166957 -3.561739 42 43 54
-0.193270 0.165660 -3.534081 44 46 50
-0.178235 0.164524 -3.509854 52 54 58
-0.123818 0.165090 -3.521926 95 68 79
-0.110060 0.165090 -3.521926 96 55 73
-0.095973 0.164524 -3.509854 94 53 71
-0.082403 0.164807 -3.515880 90 53 74
-0.068552 0.164524 -3.509854 90 53 74
-0.054795 0.164384 -3.506849 98 49 79
-0.040851 0.163404 -3.485957 101 52 82
-0.027234 0.163404 -3.485957 104 50 88
-0.013559 0.162712 -3.471186 104 50 88
0.000000 0.162988 -3.477080 103 53 74
0.013877 0.166522 -3.552472 103 53 74
0.027754 0.166522 -3.552472 110 50 79
0.041237 0.164948 -3.518900 113 53 82
0.055556 0.166667 -3.555556 116 52 80
0.069686 0.167247 -3.567944 116 52 80
0.083624 0.167247 -3.567944 114 50 82
0.097561 0.167247 -3.567944 114 50 82
0.171053 0.157895 -3.368421 112 57 84
0.184211 0.157895 -3.368421 109 58 75
0.195281 0.156225 -3.332791 108 57 74
0.208299 0.156225 -3.332791 111 51 71
0.229730 0.162162 -3.459460 109 49 69
0.270096 0.154341 -3.292604 108 58 71
0.281375 0.153477 -3.274181 114 53 80
0.295108 0.153970 -3.284683 115 54 81
0.308930 0.154465 -3.295254 116 56 85
0.346921 0.166522 -3.552472 116 56 85
0.390244 0.167247 -3.567944 115 56 82
0.385382 0.159468 -3.401993 115 56 82
0.399002 0.159601 -3.404821 115 62 76
0.452579 0.159734 -3.407654 126 65 77
0.459770 0.157635 -3.362890 129 68 80
0.472131 0.157377 -3.357377 129 71 78
0.486043 0.157635 -3.362890 126 68 75
0.502064 0.158547 -3.382329 129 70 82
0.516129 0.158809 -3.387924 131 72 84
0.534224 0.160267 -3.419032 127 79 78
0.546667 0.160000 -3.413333 131 83 82
0.568047 0.162299 -3.462384 134 81 86
0.577181 0.161074 -3.436242 134 81 86
0.591100 0.161209 -3.439127 119 88 95
0.604534 0.161209 -3.439127 130 99 106
0.621622 0.162162 -3.459460 110 115 113
0.635135 0.162162 -3.459460 106 111 109
0.648649 0.162162 -3.459460 60 67 80
0.660489 0.161752 -3.450716 35 42 55
0.673968 0.161752 -3.450716 37 42 58
0.685714 0.161345 -3.442017 35 40 56
0.699160 0.161345 -3.442017 28 36 60
0.707256 0.160133 -3.416180 30 38 62
0.721202 0.160267 -3.419032 28 40 65
0.734558 0.160267 -3.419032 27 39 64
0.751678 0.161074 -3.436242 28 39 69
0.767031 0.161480 -3.444912 27 38 68
1.014208 0.209836 -4.476503 28 40 65
1.031694 0.209836 -4.476503 29 41 66
1.041215 0.208243 -4.442516 33 43 62
1.057421 0.208017 -4.437703 33 43 62
1.191111 0.213333 -4.551111 13 19 53
1.217002 0.214765 -4.581656 87 114 132
1.500000 0.260870 -5.565217 194 221 239
3.452888 0.583587 -12.449848 89 100 103
3.930636 0.554913 -11.838150 198 214 238
4.023121 0.554913 -11.838150 23 37 48
4.537313 0.573134 -12.226866 40 58 83
4.517647 0.564706 -12.047059 45 73 86
4.263852 0.506596 -10.807388 43 61 84
4.283464 0.503937 -10.750656 44 61 89
2.311360 0.269285 -5.744740 40 57 85
2.288858 0.264099 -5.634113 45 91 91
2.282609 0.260870 -5.565217 156 202 202
2.273458 0.257373 -5.490617 182 218 210
2.288770 0.256684 -5.475936 197 233 225
2.285714 0.253968 -5.417989 228 250 247
2.306878 0.253968 -5.417989 233 255 252
3.004942 0.316310 -6.747941 201 242 228
4.610169 0.464891 -9.917676 102 151 159
4.752475 0.475248 -10.138614 156 200 194
4.687651 0.464891 -9.917676 139 183 177
4.703614 0.462651 -9.869880 129 185 171
4.742169 0.462651 -9.869880 166 222 208
6.504918 0.629508 -13.429508 178 237 231
6.609836 0.629508 -13.429508 183 238 242
6.350000 0.600000 -12.800000 174 229 233
5.885057 0.551724 -11.770115 170 219 223
6.429906 0.598131 -12.760124 165 214 218
7.323944 0.676056 -14.422535 155 215 213
7.183673 0.653061 -13.931973 196 255 254
7.238095 0.653061 -13.931973 196 255 254
7.292517 0.653061 -13.931973 196 255 254
6.990291 0.621359 -13.255664 196 255 254
4.000000 0.352941 -7.529412 196 255 255
8.562500 0.750000 -16.000000 195 255 255
8.625000 0.750000 -16.000000 196 254 255
8.687500 0.750000 -16.000000 195 253 255
8.750000 0.750000 -16.000000 194 254 254
8.812500 0.750000 -16.000000 195 255 255
8.875000 0.750000 -16.000000 192 254 255
8.937500 0.750000 -16.000000 192 254 255
9.000000 0.750000 -16.000000 191 253 255
8.754717 0.724528 -15.456604 190 252 255
9.125000 0.750000 -16.000000 191 253 255
8.875472 0.724528 -15.456604 191 253 255
9.250000 0.750000 -16.000000 189 253 255
8.962406 0.721804 -15.398497 188 252 255
9.022556 0.721804 -15.398497 188 252 255
8.915129 0.708487 -15.114391 187 251 254
9.108614 0.719101 -15.340824 187 251 254
9.033211 0.708487 -15.114391 186 250 253
9.625000 0.750000 -16.000000 184 253 252
9.185185 0.711111 -15.170370 183 252 251
9.750000 0.750000 -16.000000 184 250 255
9.812500 0.750000 -16.000000 183 249 254
9.875000 0.750000 -16.000000 186 247 255
9.937500 0.750000 -16.000000 187 248 255
-0.622030 0.190065 -4.423326 88 100 96
-0.600214 0.188639 -4.390139 72 84 80
-0.576882 0.186638 -4.343585 53 63 54
-0.558730 0.186243 -4.334392 47 57 48
-0.542948 0.186638 -4.343585 45 53 61
-0.534483 0.189655 -4.413793 46 54 62
-0.519481 0.190476 -4.432900 50 52 71
-0.499462 0.189451 -4.409042 56 58 77
-0.479657 0.188437 -4.385439 62 71 86
-0.460064 0.187433 -4.362087 69 78 93
-0.441614 0.186837 -4.348196 70 91 95
-0.424178 0.186638 -4.343585 72 93 97
-0.407211 0.186638 -4.343585 81 89 93
-0.334378 0.183908 -4.280042 75 87 83
-0.317659 0.183908 -4.280042 71 83 79
-0.298137 0.182195 -4.240166 42 48 64
-0.222609 0.153043 -3.561739 44 43 68
-0.146045 0.178499 -4.154158 65 49 61
-0.128902 0.177241 -4.124874 81 48 72
-0.111776 0.175649 -4.087824 84 51 75
-0.084211 0.154386 -3.592983 85 50 75
-0.069565 0.153043 -3.561739 84 49 74
-0.055363 0.152249 -3.543253 88 48 77
-0.041166 0.150943 -3.512865 89 49 78
-0.027444 0.150943 -3.512865 93 45 79
-0.016393 0.180328 -4.196721 94 46 80
0.000000 0.180328 -4.196721 95 50 69
0.013913 0.153043 -3.561739 96 51 70
0.027754 0.152645 -3.552472 97 51 75
0.041631 0.152645 -3.552472 95 49 73
0.065708 0.180698 -4.205339 102 50 76
0.144499 0.144499 -3.362890 104 47 77
0.157635 0.144499 -3.362890 101 48 77
0.170912 0.144618 -3.365653 104 51 80
0.184211 0.144737 -3.368421 101 52 70
0.198020 0.145215 -3.379538 103 54 72
0.258065 0.177419 -4.129032 108 48 77
0.273367 0.176884 -4.116583 107 47 76
0.270096 0.141479 -3.292604 109 51 86
0.281375 0.140687 -3.274181 108 51 90
0.295108 0.141139 -3.284683 106 49 88
0.311436 0.142741 -3.321979 101 49 75
0.328138 0.144381 -3.360131 102 50 76
0.385382 0.146179 -3.401993 109 52 82
0.399002 0.146301 -3.404821 106 54 80
0.411960 0.146179 -3.401993 109 57 83
0.452579 0.146423 -3.407654 110 55 70
0.460526 0.144737 -3.368421 117 62 77
0.472906 0.144499 -3.362890 116 64 71
0.486842 0.144737 -3.368421 115 63 70
0.502064 0.145334 -3.382329 125 67 86
0.515277 0.145334 -3.382329 129 71 90
0.532889 0.146545 -3.410491 122 74 82
0.546211 0.146545 -3.410491 121 73 81
0.560935 0.146912 -3.419032 115 73 87
0.574290 0.146912 -3.419032 118 76 90
0.591100 0.147775 -3.439127 105 92 98
0.605042 0.147899 -3.442017 122 109 115
0.622147 0.148774 -3.462384 109 114 114
0.635672 0.148774 -3.462384 70 75 75
0.648649 0.148649 -3.459460 28 41 59
0.659933 0.148148 -3.447811 31 44 62
0.673968 0.148273 -3.450716 30 44 66
0.692112 0.149279 -3.474131 27 41 63
0.705683 0.149279 -3.474131 29 44 59
0.708438 0.147034 -3.421888 29 44 59
0.721202 0.146912 -3.419032 32 40 60
0.734558 0.146912 -3.419032 32 40 60
0.748538 0.147034 -3.421888 32 40 62
0.768323 0.148273 -3.450716 31 39 61
1.006508 0.190889 -4.442516 28 40 65
1.056277 0.190476 -4.432900 30 42 65
1.073593 0.190476 -4.432900 29 40 68
1.160440 0.193407 -4.501099 37 36 63
1.178022 0.193407 -4.501099 39 38 65
1.208889 0.195556 -4.551111 7 28 57
1.533333 0.244444 -5.688889 68 89 118
1.555556 0.244444 -5.688889 178 195 196
1.551913 0.240437 -5.595628 235 252 253
1.573771 0.240437 -5.595628 150 155 171
1.569893 0.236559 -5.505376 63 68 84
3.373219 0.501424 -11.669516 4 23 59
3.797468 0.556962 -12.962026 22 41 77
3.965812 0.501424 -11.669516 37 46 70
3.826087 0.478261 -11.130435 34 46 71
4.643678 0.505747 -11.770115 37 51 73
4.446867 0.479564 -11.160763 33 53 66
2.384949 0.254703 -5.927641 30 50 63
2.320781 0.245467 -5.712692 57 91 84
2.333333 0.244444 -5.688889 141 175 168
2.355556 0.244444 -5.688889 151 189 168
2.335607 0.240109 -5.587995 162 200 179
2.313253 0.235609 -5.483266 187 227 208
2.306878 0.232804 -5.417989 205 245 226
2.356091 0.235609 -5.483266 206 245 232
2.978583 0.289951 -6.747941 209 246 228
2.876972 0.277603 -6.460568 177 206 201
2.848297 0.272446 -6.340557 149 178 173
2.873065 0.272446 -6.340557 139 164 158
4.771930 0.441103 -10.265664 80 92 99
4.752475 0.435644 -10.138614 38 76 79
4.733496 0.430318 -10.014670 57 95 98
4.726392 0.426150 -9.917676 120 177 160
4.765133 0.426150 -9.917676 160 217 200
5.221053 0.463158 -10.778948 168 229 222
5.839080 0.505747 -11.770115 167 222 226
5.389474 0.463158 -10.778948 165 216 219
5.701657 0.486188 -11.314918 158 209 212
7.402135 0.626335 -14.576512 151 211 211
7.649635 0.642336 -14.948905 178 238 238
7.462897 0.621908 -14.473498 195 255 253
7.600000 0.628571 -14.628572 196 255 254
4.000000 0.323529 -7.529412 196 255 255
8.562500 0.687500 -16.000000 195 255 255
8.625000 0.687500 -16.000000 195 253 255
8.687500 0.687500 -16.000000 195 253 255
8.750000 0.687500 -16.000000 193 253 255
8.812500 0.687500 -16.000000 193 253 255
8.875000 0.687500 -16.000000 191 253 255
8.937500 0.687500 -16.000000 190 252 255
9.000000 0.687500 -16.000000 193 252 255
9.062500 0.687500 -16.000000 192 251 255
9.125000 0.687500 -16.000000 190 252 255
9.187500 0.687500 -16.000000 190 252 255
9.250000 0.687500 -16.000000 189 251 255
9.312500 0.687500 -16.000000 189 251 255
9.375000 0.687500 -16.000000 189 251 255
9.437500 0.687500 -16.000000 190 252 255
9.500000 0.687500 -16.000000 191 250 255
9.562500 0.687500 -16.000000 190 249 254
9.625000 0.687500 -16.000000 188 251 248
9.687500 0.687500 -16.000000 188 251 248
9.750000 0.687500 -16.000000 186 250 253
9.812500 0.687500 -16.000000 185 249 252
9.875000 0.687500 -16.000000 186 247 255
9.937500 0.687500 -16.000000 186 247 255
-0.594480 0.169851 -4.348196 82 87 87
-0.576882 0.169671 -4.343585 60 64 57
-0.558730 0.169312 -4.334392 46 50 43
-0.542948 0.169671 -4.343585 39 49 59
-0.528221 0.170394 -4.362087 39 49 59
-0.516685 0.172228 -4.409042 46 48 65
-0.493617 0.170213 -4.357447 47 49 66
-0.474576 0.169492 -4.338983 51 57 75
-0.457627 0.169492 -4.338983 59 65 83
-0.440678 0.169492 -4.338983 72 83 86
-0.424178 0.169671 -4.343585 74 85 88
-0.410256 0.170940 -4.376069 74 85 88
-0.334378 0.167189 -4.280042 77 86 85
-0.318658 0.167715 -4.293501 70 79 78
-0.305085 0.169492 -4.338983 46 53 66
-0.082816 0.165631 -4.240166 79 46 86
-0.050686 0.168955 -4.325238 79 44 80
-0.016895 0.168955 -4.325238 82 48 77
0.000000 0.163934 -4.196721 87 47 76
0.013913 0.139130 -3.561739 84 44 73
0.027826 0.139130 -3.561739 86 43 75
0.083551 0.139252 -3.564839 87 42 77
0.093567 0.133667 -3.421888 90 45 80
0.159204 0.132670 -3.396352 95 47 72
0.171617 0.132013 -3.379538 95 47 72
0.185892 0.132780 -3.399170 97 45 67
0.241206 0.160804 -4.116583 100 48 70
0.258325 0.161453 -4.133199 102 47 76
0.249795 0.131471 -3.365653 96 49 78
0.262942 0.131471 -3.365653 100 47 87
0.272506 0.129765 -3.321979 100 47 87
0.285483 0.129765 -3.321979 96 49 78
0.298459 0.129765 -3.321979 96 49 78
0.311688 0.129870 -3.324675 100 51 69
0.327065 0.130826 -3.349141 99 50 68
0.381579 0.131579 -3.368421 103 50 79
0.393120 0.131040 -3.354627 100 52 77
0.403580 0.130187 -3.332791 100 52 77
0.416599 0.130187 -3.332791 98 50 75
0.429618 0.130187 -3.332791 100 52 77
0.445902 0.131148 -3.357377 104 55 71
0.459770 0.131363 -3.362890 110 61 77
0.472906 0.131363 -3.362890 108 57 76
0.486442 0.131471 -3.365653 108 57 76
0.500000 0.131579 -3.368421 104 53 81
0.513580 0.131687 -3.371193 108 57 85
0.528489 0.132122 -3.382329 102 65 77
0.545757 0.133111 -3.407654 105 68 80
0.559534 0.133222 -3.410491 96 76 89
0.572856 0.133222 -3.410491 99 79 92
0.588137 0.133667 -3.421888 108 104 119
0.601002 0.133556 -3.419032 100 96 111
0.622147 0.135249 -3.462384 50 45 80
0.635672 0.135249 -3.462384 27 22 57
0.648649 0.135135 -3.459460 23 25 58
0.662162 0.135135 -3.459460 22 24 57
0.719254 0.135708 -3.474131 19 32 52
0.721804 0.133667 -3.421888 24 28 49
0.735171 0.133667 -3.421888 26 30 51
1.480992 0.264463 -6.770248 30 29 52
1.149075 0.174102 -4.457018 32 37 60
1.171585 0.174863 -4.476503 33 38 61
1.530055 0.218579 -5.595628 30 52 76
1.528937 0.215343 -5.512786 111 133 157
1.540107 0.213904 -5.475936 191 226 214
1.559413 0.213618 -5.468625 223 255 246
1.580774 0.213618 -5.468625 180 182 188
1.608579 0.214477 -5.490617 127 129 135
3.788162 0.498442 -12.760124 85 76 81
3.898734 0.506329 -12.962026 80 71 76
3.924528 0.503145 -12.880503 78 91 93
4.023121 0.462428 -11.838150 33 43 62
4.689655 0.459770 -11.770115 31 51 62
2.384949 0.231548 -5.927641 29 49 60
2.333801 0.224404 -5.744740 53 85 76
2.431259 0.231548 -5.927641 134 166 157
2.392102 0.225670 -5.777151 137 166 133
2.377778 0.222222 -5.688889 150 179 146
2.357435 0.218281 -5.587995 175 206 172
2.379263 0.218281 -5.587995 185 216 182
2.444444 0.222222 -5.688889 178 212 188
2.871795 0.256410 -6.564103 191 228 201
2.851735 0.252366 -6.460568 199 236 209
2.823529 0.247678 -6.340557 179 211 200
2.787879 0.242424 -6.206060 129 161 150
2.782609 0.239880 -6.140930 124 159 147
2.836364 0.242424 -6.206060 112 147 135
4.812030 0.401002 -10.265664 88 138 137
4.827930 0.399002 -10.214464 97 147 146
4.867830 0.399002 -10.214464 115 172 164
4.907731 0.399002 -10.214464 152 209 201
5.390374 0.427807 -10.951872 163 219 218
5.319372 0.418848 -10.722513 160 216 215
5.305699 0.414508 -10.611399 161 210 216
5.389034 0.417755 -10.694517 155 204 210
7.323944 0.563380 -14.422535 143 205 211
7.539568 0.575540 -14.733813 178 240 246
7.462897 0.565371 -14.473498 195 255 253
8.562500 0.625000 -16.000000 195 255 255
8.625000 0.625000 -16.000000 196 254 255
8.687500 0.625000 -16.000000 196 254 255
8.750000 0.625000 -16.000000 192 254 255
8.812500 0.625000 -16.000000 191 253 255
8.875000 0.625000 -16.000000 191 253 255
8.937500 0.625000 -16.000000 191 253 255
9.000000 0.625000 -16.000000 191 253 255
9.062500 0.625000 -16.000000 189 251 253
9.125000 0.625000 -16.000000 192 251 255
9.187500 0.625000 -16.000000 192 251 255
9.250000 0.625000 -16.000000 191 250 255
9.312500 0.625000 -16.000000 191 250 255
9.375000 0.625000 -16.000000 189 251 253
9.437500 0.625000 -16.000000 189 251 253
9.500000 0.625000 -16.000000 191 250 255
9.562500 0.625000 -16.000000 191 250 255
9.625000 0.625000 -16.000000 188 251 250
9.687500 0.625000 -16.000000 188 251 250
9.750000 0.625000 -16.000000 187 250 255
9.812500 0.625000 -16.000000 186 249 255
9.875000 0.625000 -16.000000 186 249 255
9.937500 0.625000 -16.000000 186 249 255
-0.577495 0.152866 -4.348196 75 79 72
-0.559322 0.152542 -4.338983 48 52 45
-0.542373 0.152542 -4.338983 46 50 55
-0.525424 0.152542 -4.338983 45 49 54
-0.509554 0.152866 -4.348196 48 49 62
-0.491525 0.152542 -4.338983 48 49 62
-0.473573 0.152220 -4.329810 53 61 65
-0.456177 0.152059 -4.325238 59 67 71
-0.439746 0.152220 -4.329810 69 87 73
-0.424178 0.152704 -4.343585 71 89 75
-0.016393 0.147541 -4.196721 79 46 70
0.000000 0.121724 -3.462384 77 47 66
0.013525 0.121724 -3.462384 74 44 63
0.033333 0.150000 -4.266667 77 43 72
0.066667 0.150000 -4.266667 78 38 76
0.077071 0.138728 -3.946050 79 39 77
0.080201 0.120301 -3.421888 82 38 75
0.092486 0.118910 -3.382329 83 39 76
0.106224 0.119502 -3.399170 84 39 72
0.170032 0.153029 -4.352816 88 49 71
0.168582 0.137931 -3.923372 86 47 69
0.181991 0.136493 -3.882464 84 47 66
0.173189 0.119900 -3.410491 84 47 66
0.186511 0.119900 -3.410491 87 44 67
0.200669 0.120401 -3.424749 89 46 69
0.249795 0.118324 -3.365653 86 47 80
0.262942 0.118324 -3.365653 88 47 85
0.272949 0.116978 -3.327376 88 47 85
0.285714 0.116883 -3.324675 89 45 84
0.298701 0.116883 -3.324675 89 45 84
0.311688 0.116883 -3.324675 93 47 62
0.365631 0.131627 -3.744059 92 46 61
0.412523 0.132597 -3.771639 94 48 70
0.379705 0.117840 -3.351882 94 48 70
0.393120 0.117936 -3.354627 92 48 76
0.403580 0.117168 -3.332791 92 48 76
0.416599 0.117168 -3.332791 94 48 74
0.429618 0.117168 -3.332791 95 49 75
0.441917 0.116978 -3.327376 101 50 80
0.458265 0.117840 -3.351882 104 53 83
0.472906 0.118227 -3.362890 99 52 83
0.486442 0.118324 -3.365653 101 54 85
0.500000 0.118421 -3.368421 96 58 86
0.513580 0.118519 -3.371193 98 60 88
0.528489 0.118910 -3.382329 86 65 83
0.544398 0.119502 -3.399170 90 69 87
0.559534 0.119900 -3.410491 81 78 97
0.574770 0.120301 -3.421888 101 98 117
0.590109 0.120704 -3.433361 126 154 132
0.608622 0.121724 -3.462384 147 175 153
0.623201 0.121931 -3.468247 150 178 129
0.637829 0.122137 -3.474131 136 164 115
2.965035 0.503497 -14.321678 118 128 81
3.042253 0.507042 -14.422535 123 121 80
3.259259 0.533333 -15.170370 113 111 70
3.246377 0.521739 -14.840580 118 102 70
3.304348 0.521739 -14.840580 111 95 63
3.625000 0.562500 -16.000000 103 85 63
4.062500 0.562500 -16.000000 82 54 44
1.149075 0.156692 -4.457018 78 56 33
4.187500 0.562500 -16.000000 77 55 32
4.250000 0.562500 -16.000000 70 50 42
4.375000 0.562500 -16.000000 78 38 51
3.930796 0.498270 -14.173011 65 25 38
1.540107 0.192513 -5.475936 62 50 44
1.561497 0.192513 -5.475936 118 106 100
1.582888 0.192513 -5.475936 163 189 175
1.671309 0.200557 -5.704735 205 231 217
1.693593 0.200557 -5.704735 217 247 250
1.727910 0.201964 -5.744740 222 252 255
1.735744 0.200278 -5.696801 230 241 255
1.891304 0.195652 -5.565217 18 16 32
2.384949 0.208394 -5.927641 17 35 58
2.408104 0.208394 -5.927641 42 54 88
2.414669 0.203103 -5.777151 96 109 111
2.400000 0.200000 -5.688889 110 133 111
2.379263 0.196453 -5.587995 139 162 140
2.356091 0.192771 -5.483266 146 176 166
2.285714 0.185328 -5.271557 148 178 168
2.333333 0.187500 -5.333333 154 195 169
2.739394 0.218182 -6.206060 176 217 191
2.782609 0.215892 -6.140930 106 135 141
5.263158 0.378947 -10.778948 151 202 196
5.277487 0.376963 -10.722513 152 204 200
5.305483 0.375979 -10.694517 159 211 207
5.305699 0.373057 -10.611399 158 202 210
7.242105 0.505263 -14.371930 156 200 208
7.298245 0.505263 -14.371930 142 204 208
7.406361 0.508834 -14.473498 176 238 242
7.410526 0.505263 -14.371930 197 255 255
7.519434 0.508834 -14.473498 196 255 254
7.657143 0.514286 -14.628572 194 255 254
8.562500 0.562500 -16.000000 196 255 254
8.625000 0.562500 -16.000000 196 255 254
8.687500 0.562500 -16.000000 196 255 254
8.750000 0.562500 -16.000000 191 255 255
8.812500 0.562500 -16.000000 190 254 255
8.875000 0.562500 -16.000000 192 255 254
8.937500 0.562500 -16.000000 192 255 254
9.000000 0.562500 -16.000000 190 252 254
9.062500 0.562500 -16.000000 190 252 254
9.125000 0.562500 -16.000000 190 252 255
9.187500 0.562500 -16.000000 190 252 255
9.250000 0.562500 -16.000000 191 250 255
9.312500 0.562500 -16.000000 191 250 255
9.375000 0.562500 -16.000000 189 251 253
9.437500 0.562500 -16.000000 189 251 253
9.500000 0.562500 -16.000000 188 252 253
9.562500 0.562500 -16.000000 188 252 253
9.625000 0.562500 -16.000000 185 252 252
9.687500 0.562500 -16.000000 184 251 251
9.750000 0.562500 -16.000000 184 250 255
9.812500 0.562500 -16.000000 184 250 255
9.875000 0.562500 -16.000000 184 250 255
9.937500 0.562500 -16.000000 184 250 255
-0.577495 0.135881 -4.348196 83 90 90
-0.559322 0.135593 -4.338983 46 53 53
-0.540655 0.135164 -4.325238 51 51 55
-0.523759 0.135164 -4.325238 54 54 58
-0.506864 0.135164 -4.325238 50 47 59
-0.483837 0.133472 -4.271116 50 47 59
-0.466667 0.133333 -4.266667 54 62 56
-0.447205 0.132505 -4.240166 61 69 63
-0.437895 0.134737 -4.311579 69 84 73
-0.422833 0.135307 -4.329810 65 80 69
0.000000 0.121905 -3.900952 71 42 67
0.092486 0.123314 -3.946050 71 39 70
0.093333 0.106667 -3.413333 72 40 71
0.106224 0.106224 -3.399170 75 40 67
0.120000 0.106667 -3.413333 76 41 68
0.153257 0.122605 -3.923372 73 42 68
0.168582 0.122605 -3.923372 74 43 69
0.183908 0.122605 -3.923372 75 42 64
0.197343 0.121442 -3.886148 74 41 63
0.187291 0.107023 -3.424749 75 40 65
0.200669 0.107023 -3.424749 75 40 65
0.263374 0.105350 -3.371193 80 44 76
0.274510 0.104575 -3.346405 78 42 74
0.289712 0.105350 -3.371193 79 42 77
0.333032 0.115837 -3.706787 80 43 78
0.347511 0.115837 -3.706787 83 45 60
0.365631 0.117002 -3.744059 82 44 59
0.394881 0.117002 -3.744059 81 46 69
0.367213 0.104918 -3.357377 79 48 72
0.379705 0.104746 -3.351882 79 48 72
0.393443 0.104918 -3.357377 86 41 74
0.408230 0.105350 -3.371193 87 42 75
0.421053 0.105263 -3.368421 84 46 74
0.432787 0.104918 -3.357377 84 46 74
0.442636 0.104150 -3.332791 82 46 76
0.454915 0.103981 -3.327376 86 50 80
0.469821 0.104405 -3.340946 87 51 83
0.488852 0.105698 -3.382329 87 51 83
0.502479 0.105785 -3.385124 85 55 83
0.515277 0.105698 -3.382329 86 56 84
0.528489 0.105698 -3.382329 82 65 93
0.541701 0.105698 -3.382329 89 72 100
0.563286 0.107293 -3.433361 107 100 109
2.687500 0.500000 -16.000000 136 129 138
2.750000 0.500000 -16.000000 171 164 127
2.812500 0.500000 -16.000000 184 177 140
2.875000 0.500000 -16.000000 189 186 116
2.937500 0.500000 -16.000000 186 183 113
3.187500 0.500000 -16.000000 190 197 117
3.250000 0.500000 -16.000000 194 198 110
3.187970 0.481203 -15.398497 193 197 109
3.200000 0.474074 -15.170370 200 201 116
3.259259 0.474074 -15.170370 202 203 118
3.318518 0.474074 -15.170370 195 198 115
3.562500 0.500000 -16.000000 199 202 119
3.625000 0.500000 -16.000000 197 202 132
3.687500 0.500000 -16.000000 194 199 129
4.000000 0.500000 -16.000000 185 203 133
4.062500 0.500000 -16.000000 194 212 142
4.125000 0.500000 -16.000000 194 220 136
4.187500 0.500000 -16.000000 190 216 132
4.250000 0.500000 -16.000000 188 213 136
4.312500 0.500000 -16.000000 190 215 138
4.014337 0.458781 -14.681004 189 213 145
4.000000 0.450704 -14.422535 186 210 142
4.042105 0.449123 -14.371930 183 209 156
4.041523 0.442907 -14.173011 179 205 152
4.154386 0.449123 -14.371930 170 201 160
4.123711 0.439863 -14.075602 179 210 169
1.705470 0.179523 -5.744740 179 215 179
1.727910 0.179523 -5.744740 185 221 185
1.735744 0.178025 -5.696801 174 221 184
5.562500 0.500000 -16.000000 138 177 147
5.625000 0.500000 -16.000000 136 173 148
5.687500 0.500000 -16.000000 133 170 145
6.437500 0.500000 -16.000000 107 125 93
6.500000 0.500000 -16.000000 107 106 103
2.400000 0.177778 -5.688889 104 88 74
2.379263 0.174625 -5.587995 111 95 81
2.401091 0.174625 -5.587995 119 105 88
2.422920 0.174625 -5.587995 119 105 88
2.364116 0.168865 -5.403694 98 109 95
2.385224 0.168865 -5.403694 104 115 101
2.598291 0.182336 -5.834758 116 149 130
5.277487 0.335079 -10.722513 154 202 199
5.319372 0.335079 -10.722513 160 208 205
8.000000 0.500000 -16.000000 155 202 204
7.730337 0.479401 -15.340824 153 200 202
7.482014 0.460432 -14.733813 143 206 205
7.539568 0.460432 -14.733813 179 242 241
7.410526 0.449123 -14.371930 197 255 253
8.000000 0.481203 -15.398497 196 255 252
7.740072 0.462094 -14.787004 198 255 255
7.941176 0.470588 -15.058824 198 255 255
8.500000 0.500000 -16.000000 197 255 252
8.562500 0.500000 -16.000000 197 255 252
8.625000 0.500000 -16.000000 196 255 252
8.687500 0.500000 -16.000000 197 255 253
8.750000 0.500000 -16.000000 195 255 253
8.812500 0.500000 -16.000000 195 255 253
8.875000 0.500000 -16.000000 195 255 253
8.601503 0.481203 -15.398497 196 255 254
9.000000 0.500000 -16.000000 194 254 252
9.062500 0.500000 -16.000000 194 254 252
9.125000 0.500000 -16.000000 193 255 255
9.187500 0.500000 -16.000000 192 255 254
9.250000 0.500000 -16.000000 190 254 255
9.312500 0.500000 -16.000000 189 253 255
9.375000 0.500000 -16.000000 187 254 255
9.437500 0.500000 -16.000000 188 255 255
9.500000 0.500000 -16.000000 187 254 254
9.562500 0.500000 -16.000000 187 254 254
9.625000 0.500000 -16.000000 187 254 252
9.687500 0.500000 -16.000000 185 252 250
9.750000 0.500000 -16.000000 186 250 253
9.812500 0.500000 -16.000000 186 250 253
9.875000 0.500000 -16.000000 186 250 251
3.269923 0.164524 -5.264781 188 252 253
-0.816327 0.163265 -5.970846 88 106 92
-0.577495 0.118896 -4.348196 90 98 92
-0.556962 0.118143 -4.320675 51 59 53
-0.536688 0.117400 -4.293501 42 50 56
-0.516667 0.116667 -4.266667 38 46 52
-0.498960 0.116424 -4.257796 45 44 51
-0.481328 0.116183 -4.248963 49 48 55
-0.460905 0.115226 -4.213992 51 55 50
-0.440367 0.114169 -4.175331 59 63 58
-0.424057 0.114169 -4.175331 60 68 60
-0.414079 0.115942 -4.240166 62 70 62
0.000000 0.169697 -6.206060 62 39 69
0.024242 0.169697 -6.206060 61 38 68
0.077071 0.107900 -3.946050 57 38 55
0.100840 0.117647 -4.302521 60 41 58
0.107692 0.107692 -3.938462 58 39 56
0.134454 0.117647 -4.302521 65 34 62
0.120000 0.093333 -3.413333 70 39 67
0.133222 0.093256 -3.410491 64 42 67
0.146545 0.093256 -3.410491 62 40 65
0.181991 0.106161 -3.882464 64 41 55
0.197156 0.106161 -3.882464 63 40 54
0.188235 0.094118 -3.442017 65 38 49
0.263374 0.092181 -3.371193 67 35 66
0.276316 0.092105 -3.368421 69 37 68
0.289712 0.092181 -3.371193 68 40 58
0.333032 0.101357 -3.706787 69 41 59
0.347511 0.101357 -3.706787 70 37 57
0.361991 0.101357 -3.706787 71 38 58
0.376812 0.101449 -3.710145 72 42 61
0.357912 0.092792 -3.393538 72 42 61
0.368118 0.092030 -3.365653 67 45 70
0.380952 0.091954 -3.362890 67 45 70
0.396694 0.092562 -3.385124 69 42 69
0.409917 0.092562 -3.385124 70 43 70
0.422791 0.092486 -3.382329 70 45 71
0.434211 0.092105 -3.368421 72 47 73
0.446634 0.091954 -3.362890 72 47 75
0.459016 0.091803 -3.357377 74 49 77
0.475248 0.092409 -3.379538 72 51 78
0.492923 0.093256 -3.410491 74 53 80
0.505403 0.093101 -3.404821 68 55 75
0.516984 0.092792 -3.393538 66 53 73
0.529801 0.092715 -3.390728 82 84 92
0.543046 0.092715 -3.390728 115 117 125
0.557676 0.092946 -3.399170 150 154 129
2.687500 0.437500 -16.000000 156 160 135
2.750000 0.437500 -16.000000 163 174 120
2.812500 0.437500 -16.000000 167 178 124
2.875000 0.437500 -16.000000 172 175 121
2.937500 0.437500 -16.000000 171 174 120
3.000000 0.437500 -16.000000 167 177 107
3.062500 0.437500 -16.000000 169 179 109
3.125000 0.437500 -16.000000 171 178 109
3.187500 0.437500 -16.000000 164 171 102
3.250000 0.437500 -16.000000 160 171 94
3.187970 0.421053 -15.398497 166 177 100
3.200000 0.414815 -15.170370 172 175 105
3.259259 0.414815 -15.170370 174 177 107
3.318518 0.414815 -15.170370 174 177 107
3.562500 0.437500 -16.000000 173 176 106
3.625000 0.437500 -16.000000 175 177 110
3.687500 0.437500 -16.000000 179 181 114
3.750000 0.437500 -16.000000 177 181 118
3.812500 0.437500 -16.000000 175 179 116
3.875000 0.437500 -16.000000 174 182 106
3.937500 0.437500 -16.000000 174 182 106
4.000000 0.437500 -16.000000 176 175 118
4.062500 0.437500 -16.000000 170 169 112
4.125000 0.437500 -16.000000 167 171 108
4.187500 0.437500 -16.000000 170 174 111
4.250000 0.437500 -16.000000 178 177 102
3.928826 0.398576 -14.576512 176 175 100
3.985765 0.398576 -14.576512 173 172 99
4.000000 0.394366 -14.422535 172 171 98
4.056338 0.394366 -14.422535 175 177 101
4.112676 0.394366 -14.422535 179 181 105
3.237209 0.260465 -9.525581 179 187 111
5.234201 0.416357 -15.226766 178 186 112
5.562500 0.437500 -16.000000 179 187 113
5.625000 0.437500 -16.000000 183 186 116
5.687500 0.437500 -16.000000 180 183 113
5.750000 0.437500 -16.000000 176 183 112
3.637895 0.235789 -8.623158 166 178 105
3.610766 0.231884 -8.480331 166 178 105
3.577236 0.227642 -8.325203 165 174 116
3.677019 0.231884 -8.480331 160 169 111
3.780591 0.236287 -8.641350 150 169 121
3.814346 0.236287 -8.641350 143 162 114
3.831933 0.235294 -8.605042 138 153 113
3.865546 0.235294 -8.605042 138 153 113
1.178218 0.069307 -2.534653 66 74 66
8.062500 0.437500 -16.000000 154 205 199
8.125000 0.437500 -16.000000 152 207 200
8.187500 0.437500 -16.000000 190 245 238
8.250000 0.437500 -16.000000 205 255 247
8.312500 0.437500 -16.000000 205 255 247
8.060150 0.421053 -15.398497 207 255 248
8.120300 0.421053 -15.398497 207 255 248
8.500000 0.437500 -16.000000 207 255 249
8.562500 0.437500 -16.000000 206 255 248
8.625000 0.437500 -16.000000 207 255 249
8.687500 0.437500 -16.000000 207 255 249
8.750000 0.437500 -16.000000 207 255 248
8.812500 0.437500 -16.000000 208 255 249
8.875000 0.437500 -16.000000 206 255 250
8.601503 0.421053 -15.398497 206 255 250
9.000000 0.437500 -16.000000 205 255 249
9.062500 0.437500 -16.000000 205 255 249
9.125000 0.437500 -16.000000 205 255 249
9.187500 0.437500 -16.000000 205 255 249
9.250000 0.437500 -16.000000 202 255 250
9.312500 0.437500 -16.000000 201 255 249
9.375000 0.437500 -16.000000 197 255 249
9.437500 0.437500 -16.000000 198 255 250
9.500000 0.437500 -16.000000 198 255 250
9.562500 0.437500 -16.000000 197 255 249
9.625000 0.437500 -16.000000 197 255 249
9.253732 0.417910 -15.283582 195 255 247
9.313433 0.417910 -15.283582 194 255 248
9.373135 0.417910 -15.283582 194 255 248
9.294118 0.411765 -15.058824 191 255 247
3.269923 0.143959 -5.264781 191 255 247
-0.500745 0.071535 -3.052161 84 102 86
-0.487370 0.071322 -3.043091 82 100 84
-0.525020 0.078753 -3.360131 74 91 85
-0.831169 0.138528 -5.910534 85 94 91
-0.808081 0.138528 -5.910534 91 100 97
-0.781609 0.137931 -5.885057 98 99 110
-0.559915 0.101803 -4.343585 69 70 81
-0.536688 0.100629 -4.293501 42 51 66
-0.516667 0.100000 -4.266667 34 43 58
-0.498960 0.099792 -4.257796 37 45 49
-0.481328 0.099585 -4.248963 43 51 55
-0.460905 0.098765 -4.213992 45 53 57
-0.440367 0.097859 -4.175331 46 54 58
-0.424057 0.097859 -4.175331 57 62 62
-0.422833 0.101480 -4.329810 61 66 66
0.117647 0.100840 -4.302521 53 36 57
0.109589 0.082192 -3.506849 55 31 66
0.121314 0.080876 -3.450716 55 31 66
0.133001 0.079801 -3.404821 59 34 58
0.146301 0.079801 -3.404821 59 34 58
0.158416 0.079208 -3.379538 59 36 50
0.173478 0.080067 -3.416180 59 36 50
0.189189 0.081081 -3.459460 55 36 51
0.242220 0.080740 -3.444912 55 39 60
0.281407 0.080402 -3.430486 57 35 69
0.289712 0.079012 -3.371193 57 35 60
0.302881 0.079012 -3.371193 56 34 59
0.316049 0.079012 -3.371193 62 30 61
0.329761 0.079143 -3.376752 63 31 62
0.342951 0.079143 -3.376752 64 34 64
0.355848 0.079077 -3.373970 66 36 66
0.368421 0.078947 -3.368421 61 39 71
0.381265 0.078883 -3.365653 60 38 70
0.395062 0.079012 -3.371193 58 42 63
0.409579 0.079273 -3.382329 60 44 65
0.422791 0.079273 -3.382329 60 44 67
0.434568 0.079012 -3.371193 61 45 68
0.447737 0.079012 -3.371193 67 45 81
0.462046 0.079208 -3.379538 67 45 81
0.475640 0.079273 -3.382329 58 48 74
0.491286 0.079668 -3.399170 64 54 80
0.504564 0.079668 -3.399170 68 73 85
0.516556 0.079470 -3.390728 88 93 105
0.525883 0.078883 -3.365653 104 103 98
0.538588 0.078818 -3.362890 120 119 114
0.551724 0.078818 -3.362890 128 117 95
0.563011 0.078560 -3.351882 93 82 60
0.576105 0.078560 -3.351882 84 71 63
2.706767 0.360902 -15.398497 80 67 59
2.875000 0.375000 -16.000000 84 72 57
2.937500 0.375000 -16.000000 92 80 65
3.000000 0.375000 -16.000000 98 92 68
3.062500 0.375000 -16.000000 101 95 71
3.125000 0.375000 -16.000000 101 93 65
3.187500 0.375000 -16.000000 102 94 66
3.250000 0.375000 -16.000000 106 101 68
3.312500 0.375000 -16.000000 105 100 67
3.200000 0.355556 -15.170370 110 101 76
3.200000 0.349091 -14.894546 112 103 78
3.500000 0.375000 -16.000000 114 115 73
3.562500 0.375000 -16.000000 116 117 75
3.625000 0.375000 -16.000000 111 118 76
3.687500 0.375000 -16.000000 114 121 79
3.750000 0.375000 -16.000000 118 125 83
3.812500 0.375000 -16.000000 124 131 89
3.875000 0.375000 -16.000000 127 134 92
3.937500 0.375000 -16.000000 133 140 98
4.000000 0.375000 -16.000000 138 143 102
4.062500 0.375000 -16.000000 138 143 102
4.125000 0.375000 -16.000000 136 145 105
4.187500 0.375000 -16.000000 143 152 112
4.059701 0.358209 -15.283582 144 157 95
3.928826 0.341637 -14.576512 139 152 90
3.985765 0.341637 -14.576512 143 152 96
4.042705 0.341637 -14.576512 145 154 98
4.056338 0.338028 -14.422535 152 161 105
4.112676 0.338028 -14.422535 145 154 98
3.749319 0.261580 -11.160763 152 159 104
3.782609 0.260870 -11.130435 148 155 100
5.500000 0.375000 -16.000000 151 157 95
5.562500 0.375000 -16.000000 154 160 98
5.625000 0.375000 -16.000000 158 162 112
5.687500 0.375000 -16.000000 159 163 113
5.750000 0.375000 -16.000000 161 161 110
5.531599 0.356877 -15.226766 158 158 107
5.875000 0.375000 -16.000000 153 151 101
5.937500 0.375000 -16.000000 149 147 97
6.000000 0.375000 -16.000000 145 149 88
6.062500 0.375000 -16.000000 138 142 81
3.600849 0.203822 -8.696391 154 162 100
3.604211 0.202105 -8.623158 154 162 100
3.643892 0.198758 -8.480331 160 169 111
3.677019 0.198758 -8.480331 161 170 112
3.642277 0.195122 -8.325203 160 169 111
2.369594 0.125819 -5.368283 157 166 108
2.390563 0.125819 -5.368283 163 162 105
3.801653 0.198347 -8.462810 147 146 89
1.178218 0.059406 -2.534653 73 73 75
1.201502 0.060075 -2.563204 70 81 69
1.243417 0.061657 -2.630700 79 90 78
1.282523 0.063075 -2.691196 89 114 91
1.293036 0.063075 -2.691196 117 142 119
8.062500 0.375000 -16.000000 160 200 179
8.125000 0.375000 -16.000000 179 212 191
8.187500 0.375000 -16.000000 203 236 215
8.250000 0.375000 -16.000000 203 234 216
8.312500 0.375000 -16.000000 205 236 218
8.375000 0.375000 -16.000000 208 234 222
8.437500 0.375000 -16.000000 205 231 219
8.500000 0.375000 -16.000000 200 232 211
8.562500 0.375000 -16.000000 202 234 213
8.625000 0.375000 -16.000000 200 233 214
8.687500 0.375000 -16.000000 198 231 212
8.750000 0.375000 -16.000000 203 230 221
8.812500 0.375000 -16.000000 202 229 220
8.875000 0.375000 -16.000000 200 230 220
8.937500 0.375000 -16.000000 201 231 221
9.000000 0.375000 -16.000000 201 233 224
9.062500 0.375000 -16.000000 204 236 227
9.125000 0.375000 -16.000000 204 238 231
9.187500 0.375000 -16.000000 204 238 231
9.250000 0.375000 -16.000000 204 238 231
9.312500 0.375000 -16.000000 203 237 230
9.375000 0.375000 -16.000000 203 237 230
9.437500 0.375000 -16.000000 202 236 229
9.500000 0.375000 -16.000000 196 234 228
9.562500 0.375000 -16.000000 196 234 228
9.625000 0.375000 -16.000000 196 237 225
9.117647 0.352941 -15.058824 196 237 225
9.176471 0.352941 -15.058824 194 239 228
9.235294 0.352941 -15.058824 195 240 229
9.260074 0.351648 -15.003663 194 238 232
9.217391 0.347826 -14.840580 192 236 230
-0.522796 0.060790 -3.112462 88 97 96
-0.501493 0.059701 -3.056716 82 103 98
-0.488823 0.059613 -3.052161 78 99 94
-0.576577 0.072072 -3.690090 79 93 76
-0.831169 0.115440 -5.910534 84 96 92
-0.816327 0.116618 -5.970846 93 105 101
-0.793003 0.116618 -5.970846 101 108 112
-0.769679 0.116618 -5.970846 84 91 95
-0.536688 0.083857 -4.293501 59 60 71
-0.513990 0.082902 -4.244560 48 49 60
-0.496381 0.082730 -4.235781 49 47 50
-0.460905 0.082305 -4.213992 46 45 68
0.041703 0.069505 -3.558645 53 33 71
0.055507 0.069384 -3.552472 44 31 62
0.069204 0.069204 -3.543253 43 30 61
0.082973 0.069144 -3.540190 41 33 60
0.095890 0.068493 -3.506849 42 34 61
0.109589 0.068493 -3.506849 46 32 61
0.122658 0.068143 -3.488927 44 30 59
0.134794 0.067397 -3.450716 48 31 50
0.146667 0.066667 -3.413333 48 31 50
0.158547 0.066061 -3.382329 46 30 44
0.174790 0.067227 -3.442017 46 30 44
0.189189 0.067568 -3.459460 47 30 51
0.216034 0.067511 -3.456540 38 30 46
0.229342 0.067454 -3.453626 41 33 49
0.242220 0.067283 -3.444912 45 33 46
0.256324 0.067454 -3.453626 43 31 44
0.271647 0.067912 -3.477080 43 30 59
0.285957 0.068085 -3.485957 43 30 59
0.294807 0.067002 -3.430486 46 28 61
0.303881 0.066061 -3.382329 46 28 61
0.317093 0.066061 -3.382329 50 28 64
0.330306 0.066061 -3.382329 51 29 65
0.343518 0.066061 -3.382329 52 33 62
0.356142 0.065952 -3.376752 53 34 63
0.368724 0.065844 -3.371193 53 34 63
0.381893 0.065844 -3.371193 53 34 63
0.396694 0.066116 -3.385124 53 35 59
0.411277 0.066335 -3.396352 55 37 61
0.423140 0.066116 -3.385124 55 41 66
0.439268 0.066556 -3.407654 57 43 68
0.452579 0.066556 -3.407654 60 47 80
0.465890 0.066556 -3.407654 62 49 82
0.479201 0.066556 -3.407654 59 66 77
0.491286 0.066390 -3.399170 81 88 99
0.504146 0.066335 -3.396352 83 100 94
0.513158 0.065789 -3.368421 93 110 104
0.523732 0.065466 -3.351882 95 110 95
0.533767 0.065094 -3.332791 106 121 106
0.547231 0.065147 -3.335505 117 131 112
0.558895 0.064988 -3.327376 75 89 70
0.571893 0.064988 -3.327376 56 64 72
0.584890 0.064988 -3.327376 60 68 76
2.875000 0.312500 -16.000000 59 62 72
2.937500 0.312500 -16.000000 55 58 68
3.000000 0.312500 -16.000000 55 67 65
3.062500 0.312500 -16.000000 57 69 67
3.125000 0.312500 -16.000000 60 68 62
3.187500 0.312500 -16.000000 58 66 60
3.250000 0.312500 -16.000000 62 60 63
3.312500 0.312500 -16.000000 62 60 63
3.200000 0.296296 -15.170370 63 61 66
3.200000 0.290909 -14.894546 62 60 65
3.258182 0.290909 -14.894546 60 59 56
3.562500 0.312500 -16.000000 60 59 56
3.625000 0.312500 -16.000000 58 63 58
3.687500 0.312500 -16.000000 58 63 58
3.750000 0.312500 -16.000000 67 68 53
3.812500 0.312500 -16.000000 67 68 53
3.875000 0.312500 -16.000000 74 72 58
3.937500 0.312500 -16.000000 71 69 55
4.000000 0.312500 -16.000000 77 64 58
4.062500 0.312500 -16.000000 79 66 60
4.125000 0.312500 -16.000000 76 68 65
4.187500 0.312500 -16.000000 71 63 60
4.250000 0.312500 -16.000000 74 68 55
4.029197 0.291971 -14.948905 76 70 57
4.087591 0.291971 -14.948905 79 67 54
4.500000 0.312500 -16.000000 85 74 63
4.562500 0.312500 -16.000000 81 70 59
4.625000 0.312500 -16.000000 84 72 57
4.812500 0.312500 -16.000000 83 69 66
4.875000 0.312500 -16.000000 85 69 51
5.250000 0.312500 -16.000000 86 72 44
5.312500 0.312500 -16.000000 86 72 44
3.749319 0.217984 -11.160763 84 74 49
3.782609 0.217391 -11.130435 88 78 53
5.500000 0.312500 -16.000000 86 73 63
5.562500 0.312500 -16.000000 86 73 63
5.625000 0.312500 -16.000000 86 78 64
5.687500 0.312500 -16.000000 85 77 63
5.750000 0.312500 -16.000000 88 81 60
5.812500 0.312500 -16.000000 89 82 61
5.875000 0.312500 -16.000000 91 85 61
5.937500 0.312500 -16.000000 91 85 61
6.000000 0.312500 -16.000000 86 83 74
6.062500 0.312500 -16.000000 86 83 74
