ply
format ascii 1.0
element vertex 1163
property float x
property float y
property float z
property uchar red
property uchar green
property uchar blue
end_header
6.925373 -1.194030 -15.283582 53 66 111
6.933333 -1.185185 -15.170370 55 68 113
7.071161 -1.198502 -15.340824 52 72 112
7.437500 -1.250000 -16.000000 50 70 110
7.500000 -1.250000 -16.000000 52 67 107
7.562500 -1.250000 -16.000000 55 70 110
7.256505 -1.189591 -15.226766 56 70 106
7.261992 -1.180812 -15.114391 56 70 106
7.049275 -0.927536 -11.872464 49 61 113
7.054755 -0.922190 -11.804034 48 60 112
7.751553 -0.993789 -12.720497 46 66 106
8.288525 -1.049180 -13.429508 48 66 118
8.340983 -1.049180 -13.429508 49 67 119
-5.937500 -1.312500 -16.000000 169 168 149
-5.875000 -1.312500 -16.000000 161 164 144
-5.812500 -1.312500 -16.000000 153 156 136
-5.750000 -1.312500 -16.000000 153 154 148
-5.687500 -1.312500 -16.000000 156 157 151
-5.625000 -1.312500 -16.000000 162 157 151
-5.562500 -1.312500 -16.000000 161 156 150
-5.500000 -1.312500 -16.000000 156 156 146
-5.437500 -1.312500 -16.000000 155 155 145
-5.375000 -1.312500 -16.000000 154 153 148
-5.312500 -1.312500 -16.000000 153 152 147
-5.250000 -1.312500 -16.000000 151 151 151
-5.187500 -1.312500 -16.000000 150 150 150
-5.125000 -1.312500 -16.000000 153 149 147
-5.062500 -1.312500 -16.000000 152 148 146
-5.000000 -1.312500 -16.000000 147 148 142
-4.937500 -1.312500 -16.000000 143 144 138
-4.875000 -1.312500 -16.000000 142 143 139
-4.812500 -1.312500 -16.000000 143 144 140
-4.750000 -1.312500 -16.000000 140 145 143
-4.687500 -1.312500 -16.000000 138 143 141
-4.625000 -1.312500 -16.000000 138 139 133
-4.562500 -1.312500 -16.000000 136 137 131
-4.500000 -1.312500 -16.000000 137 138 134
-4.437500 -1.312500 -16.000000 134 135 131
-4.375000 -1.312500 -16.000000 126 132 139
-4.312500 -1.312500 -16.000000 125 131 138
-4.250000 -1.312500 -16.000000 132 132 132
-4.125000 -1.312500 -16.000000 125 130 130
-4.062500 -1.312500 -16.000000 123 128 128
-4.000000 -1.312500 -16.000000 123 124 135
-3.875000 -1.312500 -16.000000 119 118 129
-3.812500 -1.312500 -16.000000 116 115 126
-3.750000 -1.312500 -16.000000 117 118 131
-3.687500 -1.312500 -16.000000 115 116 129
-3.625000 -1.312500 -16.000000 109 117 141
-3.562500 -1.312500 -16.000000 106 114 138
-3.500000 -1.312500 -16.000000 102 113 129
-3.437500 -1.312500 -16.000000 103 114 130
-3.375000 -1.312500 -16.000000 110 111 126
-3.312500 -1.312500 -16.000000 108 109 124
-3.250000 -1.312500 -16.000000 106 112 121
-3.187500 -1.312500 -16.000000 104 110 119
-3.125000 -1.312500 -16.000000 99 111 120
-3.062500 -1.312500 -16.000000 98 110 119
-3.000000 -1.312500 -16.000000 98 106 126
-2.937500 -1.312500 -16.000000 97 105 125
-2.875000 -1.312500 -16.000000 97 105 125
-2.812500 -1.312500 -16.000000 95 103 123
-2.750000 -1.312500 -16.000000 94 102 122
-2.687500 -1.312500 -16.000000 95 103 123
-2.625000 -1.312500 -16.000000 95 100 123
-2.250000 -1.312500 -16.000000 91 94 120
-2.187500 -1.312500 -16.000000 86 89 115
-2.125000 -1.312500 -16.000000 83 90 121
-2.062500 -1.312500 -16.000000 84 91 122
-2.000000 -1.312500 -16.000000 95 92 115
-1.937500 -1.312500 -16.000000 99 96 119
-1.875000 -1.312500 -16.000000 85 75 89
-1.812500 -1.312500 -16.000000 83 73 87
-1.750000 -1.312500 -16.000000 83 69 78
-1.687500 -1.312500 -16.000000 83 69 78
1.282851 -0.374165 -4.561247 59 70 109
1.300668 -0.374165 -4.561247 60 71 110
1.318485 -0.374165 -4.561247 62 72 109
1.336303 -0.374165 -4.561247 62 72 109
1.359916 -0.352571 -4.298006 60 69 111
1.401813 -0.338369 -4.124874 57 64 118
1.413655 -0.337349 -4.112450 53 71 112
1.425425 -0.336336 -4.100100 54 72 113
1.428571 -0.333333 -4.063492 55 68 113
1.444444 -0.333333 -4.063492 55 68 113
1.460317 -0.333333 -4.063492 57 66 117
1.476190 -0.333333 -4.063492 58 67 118
1.492064 -0.333333 -4.063492 58 65 119
1.507936 -0.333333 -4.063492 57 64 118
1.523810 -0.333333 -4.063492 51 69 108
1.539683 -0.333333 -4.063492 51 69 108
1.555556 -0.333333 -4.063492 53 68 110
1.571429 -0.333333 -4.063492 52 67 109
1.587302 -0.333333 -4.063492 54 68 106
1.603175 -0.333333 -4.063492 51 65 103
1.619048 -0.333333 -4.063492 51 71 111
1.634921 -0.333333 -4.063492 51 71 111
1.650794 -0.333333 -4.063492 52 72 112
1.666667 -0.333333 -4.063492 50 70 110
1.682540 -0.333333 -4.063492 49 68 111
1.698413 -0.333333 -4.063492 48 67 110
1.714286 -0.333333 -4.063492 52 68 103
6.812500 -1.312500 -16.000000 53 69 104
6.875000 -1.312500 -16.000000 58 69 112
6.937500 -1.312500 -16.000000 59 70 113
7.000000 -1.312500 -16.000000 59 70 113
7.062500 -1.312500 -16.000000 59 70 113
7.125000 -1.312500 -16.000000 56 70 117
6.891386 -1.258427 -15.340824 54 68 115
6.925373 -1.253731 -15.283582 52 65 110
7.011236 -1.258427 -15.340824 54 67 112
7.375000 -1.312500 -16.000000 50 72 112
7.437500 -1.312500 -16.000000 46 68 108
7.500000 -1.312500 -16.000000 49 73 112
7.562500 -1.312500 -16.000000 49 73 112
7.176471 -1.235294 -15.058824 57 73 110
7.208791 -1.230769 -15.003663 55 71 108
7.002899 -0.973913 -11.872464 47 65 117
6.988506 -0.965517 -11.770115 48 66 114
7.014327 -0.962751 -11.736390 48 66 114
7.040000 -0.960000 -11.702857 45 64 109
7.065527 -0.957265 -11.669516 44 63 108
7.090909 -0.954545 -11.636364 48 63 105
7.197708 -0.962751 -11.736390 49 64 106
7.181818 -0.954545 -11.636364 50 63 117
7.186440 -0.949153 -11.570621 50 63 117
-5.937500 -1.375000 -16.000000 163 169 150
-5.875000 -1.375000 -16.000000 161 162 158
-5.812500 -1.375000 -16.000000 148 149 145
-5.750000 -1.375000 -16.000000 151 151 151
-5.687500 -1.375000 -16.000000 155 155 155
-5.625000 -1.375000 -16.000000 160 155 153
-5.562500 -1.375000 -16.000000 160 155 153
-5.500000 -1.375000 -16.000000 156 156 148
-5.437500 -1.375000 -16.000000 154 154 146
-5.375000 -1.375000 -16.000000 152 152 142
-5.312500 -1.375000 -16.000000 150 150 140
-5.250000 -1.375000 -16.000000 149 148 143
-5.187500 -1.375000 -16.000000 149 148 143
-5.125000 -1.375000 -16.000000 152 153 140
-5.062500 -1.375000 -16.000000 147 148 135
-5.000000 -1.375000 -16.000000 144 145 139
-4.937500 -1.375000 -16.000000 144 145 139
-4.875000 -1.375000 -16.000000 143 143 143
-4.812500 -1.375000 -16.000000 142 142 142
-4.750000 -1.375000 -16.000000 141 141 141
-4.687500 -1.375000 -16.000000 139 139 139
-4.625000 -1.375000 -16.000000 137 137 139
-4.562500 -1.375000 -16.000000 135 135 137
-4.500000 -1.375000 -16.000000 134 133 142
-4.437500 -1.375000 -16.000000 133 132 141
-4.375000 -1.375000 -16.000000 128 131 143
-4.312500 -1.375000 -16.000000 122 125 137
-4.074906 -1.318352 -15.340824 122 130 127
-3.985130 -1.308550 -15.226766 124 132 129
-4.125000 -1.375000 -16.000000 121 128 130
-3.812500 -1.375000 -16.000000 119 120 131
-3.750000 -1.375000 -16.000000 114 119 131
-3.687500 -1.375000 -16.000000 111 116 128
-3.625000 -1.375000 -16.000000 110 117 128
-3.562500 -1.375000 -16.000000 108 115 126
-3.500000 -1.375000 -16.000000 109 111 130
-3.437500 -1.375000 -16.000000 109 111 130
-3.375000 -1.375000 -16.000000 115 105 131
-3.312500 -1.375000 -16.000000 115 105 131
-3.250000 -1.375000 -16.000000 107 109 124
-3.187500 -1.375000 -16.000000 107 109 124
-3.125000 -1.375000 -16.000000 101 112 126
-3.062500 -1.375000 -16.000000 94 105 119
-3.000000 -1.375000 -16.000000 94 103 129
-2.937500 -1.375000 -16.000000 93 102 128
-2.875000 -1.375000 -16.000000 96 104 128
-2.812500 -1.375000 -16.000000 95 103 127
-2.750000 -1.375000 -16.000000 95 102 131
-2.687500 -1.375000 -16.000000 94 101 130
-2.625000 -1.375000 -16.000000 95 101 121
-2.174216 -1.226481 -14.271777 94 94 123
-2.250000 -1.375000 -16.000000 91 91 118
-2.187500 -1.375000 -16.000000 89 89 116
-2.125000 -1.375000 -16.000000 86 91 114
-2.062500 -1.375000 -16.000000 86 91 114
-2.000000 -1.375000 -16.000000 94 90 116
-1.937500 -1.375000 -16.000000 98 94 120
-1.875000 -1.375000 -16.000000 87 76 84
-1.812500 -1.375000 -16.000000 84 73 81
-1.750000 -1.375000 -16.000000 85 71 72
-1.687500 -1.375000 -16.000000 85 71 72
1.300668 -0.391982 -4.561247 62 68 111
1.317019 -0.391546 -4.556173 56 72 109
1.334816 -0.391546 -4.556173 56 72 109
1.352614 -0.391546 -4.556173 59 71 96
1.403226 -0.354839 -4.129032 57 66 117
1.417925 -0.354481 -4.124874 55 68 113
1.429719 -0.353414 -4.112450 55 68 113
1.442886 -0.352705 -4.104208 58 68 107
1.444444 -0.349206 -4.063492 58 68 107
1.460317 -0.349206 -4.063492 53 72 104
1.476190 -0.349206 -4.063492 53 72 104
1.492064 -0.349206 -4.063492 54 67 110
1.507936 -0.349206 -4.063492 53 66 109
1.523810 -0.349206 -4.063492 50 68 116
1.539683 -0.349206 -4.063492 49 67 115
1.555556 -0.349206 -4.063492 50 67 115
1.571429 -0.349206 -4.063492 52 69 117
1.587302 -0.349206 -4.063492 49 73 110
1.603175 -0.349206 -4.063492 44 68 105
1.619048 -0.349206 -4.063492 49 73 110
1.634921 -0.349206 -4.063492 48 72 109
1.650794 -0.349206 -4.063492 48 71 104
1.666667 -0.349206 -4.063492 47 70 103
1.682540 -0.349206 -4.063492 50 65 105
1.698413 -0.349206 -4.063492 52 67 107
6.812500 -1.375000 -16.000000 53 67 107
6.875000 -1.375000 -16.000000 58 69 108
6.937500 -1.375000 -16.000000 56 67 106
7.000000 -1.375000 -16.000000 55 65 113
7.062500 -1.375000 -16.000000 59 69 117
7.125000 -1.375000 -16.000000 56 69 114
7.187500 -1.375000 -16.000000 56 69 114
7.003774 -1.328302 -15.456604 53 72 106
7.312500 -1.375000 -16.000000 50 69 103
7.375000 -1.375000 -16.000000 54 68 104
7.437500 -1.375000 -16.000000 57 71 107
7.500000 -1.375000 -16.000000 55 70 110
7.562500 -1.375000 -16.000000 50 65 105
7.310862 -1.318352 -15.340824 46 59 106
7.235294 -1.294118 -15.058824 50 63 110
6.942529 -1.011494 -11.770115 49 62 116
6.968482 -1.008596 -11.736390 45 68 114
6.994286 -1.005714 -11.702857 44 67 113
7.000000 -1.000000 -11.636364 42 65 109
7.045455 -1.000000 -11.636364 42 65 109
7.070822 -0.997167 -11.603399 46 63 107
7.136364 -1.000000 -11.636364 48 65 109
7.141243 -0.994350 -11.570621 49 62 118
7.166197 -0.991549 -11.538028 49 62 118
-5.937500 -1.437500 -16.000000 152 153 140
-5.875000 -1.437500 -16.000000 147 147 147
-5.812500 -1.437500 -16.000000 148 148 148
-5.750000 -1.437500 -16.000000 153 153 153
-5.687500 -1.437500 -16.000000 154 154 154
-5.625000 -1.437500 -16.000000 155 154 151
-5.562500 -1.437500 -16.000000 155 154 151
-5.500000 -1.437500 -16.000000 152 153 149
-5.437500 -1.437500 -16.000000 152 153 149
-5.375000 -1.437500 -16.000000 151 152 146
-5.312500 -1.437500 -16.000000 150 151 145
-5.250000 -1.437500 -16.000000 147 146 143
-5.187500 -1.437500 -16.000000 148 147 144
-5.125000 -1.437500 -16.000000 150 152 139
-5.062500 -1.437500 -16.000000 140 142 129
-5.000000 -1.437500 -16.000000 139 144 142
-4.937500 -1.437500 -16.000000 140 145 143
-4.875000 -1.437500 -16.000000 141 139 142
-4.812500 -1.437500 -16.000000 142 140 143
-4.750000 -1.437500 -16.000000 141 139 142
-4.687500 -1.437500 -16.000000 139 137 140
-4.625000 -1.437500 -16.000000 137 136 145
-4.562500 -1.437500 -16.000000 135 134 143
-4.500000 -1.437500 -16.000000 132 130 144
-4.437500 -1.437500 -16.000000 132 130 144
-4.375000 -1.437500 -16.000000 128 130 145
-4.312500 -1.437500 -16.000000 129 131 146
-4.074906 -1.378277 -15.340824 132 137 137
-3.912409 -1.343066 -14.948905 126 131 131
-3.812274 -1.328520 -14.787004 123 126 136
-3.573883 -1.264605 -14.075602 122 125 135
-3.401993 -1.222591 -13.607973 122 121 130
-3.315789 -1.210526 -13.473684 119 118 127
-3.875000 -1.437500 -16.000000 113 119 128
-3.500000 -1.437500 -16.000000 113 110 129
-3.437500 -1.437500 -16.000000 108 105 124
-3.375000 -1.437500 -16.000000 114 106 122
-3.312500 -1.437500 -16.000000 115 107 123
-3.250000 -1.437500 -16.000000 108 109 120
-3.187500 -1.437500 -16.000000 106 107 118
-3.125000 -1.437500 -16.000000 98 108 127
-3.062500 -1.437500 -16.000000 96 106 125
-3.000000 -1.437500 -16.000000 97 100 128
-2.937500 -1.437500 -16.000000 98 101 129
-2.875000 -1.437500 -16.000000 99 104 129
-2.812500 -1.437500 -16.000000 97 102 127
-2.750000 -1.437500 -16.000000 89 99 120
-2.687500 -1.437500 -16.000000 92 102 123
-2.562500 -1.437500 -16.000000 93 98 110
-2.214533 -1.273356 -14.173011 89 96 125
-2.151724 -1.268965 -14.124138 88 95 124
-2.103806 -1.273356 -14.173011 89 93 123
-2.312500 -1.437500 -16.000000 88 92 122
-2.250000 -1.437500 -16.000000 88 91 119
-2.187500 -1.437500 -16.000000 89 92 120
-2.125000 -1.437500 -16.000000 85 96 112
-2.062500 -1.437500 -16.000000 83 94 110
-2.000000 -1.437500 -16.000000 94 91 110
-1.937500 -1.437500 -16.000000 97 94 113
-1.875000 -1.437500 -16.000000 90 81 84
-1.812500 -1.437500 -16.000000 88 79 82
-1.750000 -1.437500 -16.000000 84 71 75
-1.687500 -1.437500 -16.000000 83 70 74
1.299221 -0.409344 -4.556173 56 70 110
1.315556 -0.408889 -4.551111 56 73 105
1.334816 -0.409344 -4.556173 55 72 104
1.351111 -0.408889 -4.551111 58 71 100
1.370412 -0.409344 -4.556173 59 72 101
1.411282 -0.377436 -4.201025 53 71 112
1.407482 -0.372093 -4.141557 51 69 110
1.419355 -0.370968 -4.129032 57 69 103
1.434038 -0.370594 -4.124874 56 68 102
1.444333 -0.369107 -4.108325 57 69 101
1.444444 -0.365079 -4.063492 57 69 101
1.460317 -0.365079 -4.063492 54 72 97
1.476190 -0.365079 -4.063492 55 73 98
1.492064 -0.365079 -4.063492 53 72 106
1.507936 -0.365079 -4.063492 50 69 103
1.523810 -0.365079 -4.063492 52 66 113
1.539683 -0.365079 -4.063492 52 66 113
1.555556 -0.365079 -4.063492 54 67 112
1.571429 -0.365079 -4.063492 55 68 113
1.587302 -0.365079 -4.063492 49 69 109
1.603175 -0.365079 -4.063492 48 68 108
1.619048 -0.365079 -4.063492 47 70 114
1.634921 -0.365079 -4.063492 47 70 114
1.650794 -0.365079 -4.063492 49 69 109
1.666667 -0.365079 -4.063492 49 69 109
1.682540 -0.365079 -4.063492 51 70 104
6.875000 -1.437500 -16.000000 51 75 103
6.937500 -1.437500 -16.000000 53 77 105
7.000000 -1.437500 -16.000000 53 68 112
7.062500 -1.437500 -16.000000 54 69 113
7.125000 -1.437500 -16.000000 53 71 112
7.187500 -1.437500 -16.000000 52 70 111
7.250000 -1.437500 -16.000000 48 71 108
7.312500 -1.437500 -16.000000 46 69 106
7.375000 -1.437500 -16.000000 53 69 104
7.437500 -1.437500 -16.000000 55 71 106
7.500000 -1.437500 -16.000000 52 71 107
7.562500 -1.437500 -16.000000 50 69 105
7.310862 -1.378277 -15.340824 51 66 106
7.208791 -1.347985 -15.003663 52 67 107
7.136691 -1.323741 -14.733813 55 69 107
6.944445 -1.277778 -14.222222 55 69 107
6.922636 -1.054441 -11.736390 47 63 116
6.948571 -1.051429 -11.702857 43 66 112
6.974359 -1.048433 -11.669516 43 66 112
7.000000 -1.045455 -11.636364 43 67 106
7.025496 -1.042493 -11.603399 43 67 106
7.050848 -1.039548 -11.570621 41 65 106
7.116148 -1.042493 -11.603399 42 66 107
9.875000 -1.437500 -16.000000 48 61 115
9.937500 -1.437500 -16.000000 48 61 115
-5.937500 -1.500000 -16.000000 158 158 150
-5.875000 -1.500000 -16.000000 158 160 151
-5.812500 -1.500000 -16.000000 157 159 150
-5.750000 -1.500000 -16.000000 156 158 149
-5.687500 -1.500000 -16.000000 156 158 149
-5.625000 -1.500000 -16.000000 155 157 148
-5.562500 -1.500000 -16.000000 153 155 146
-5.500000 -1.500000 -16.000000 151 152 148
-5.437500 -1.500000 -16.000000 150 151 147
-5.375000 -1.500000 -16.000000 146 151 149
-5.312500 -1.500000 -16.000000 146 151 149
-5.250000 -1.500000 -16.000000 145 147 151
-5.187500 -1.500000 -16.000000 145 147 151
-5.125000 -1.500000 -16.000000 144 148 141
-5.062500 -1.500000 -16.000000 141 145 138
-5.000000 -1.500000 -16.000000 142 142 142
-4.937500 -1.500000 -16.000000 136 136 136
-4.875000 -1.500000 -16.000000 139 138 135
-4.812500 -1.500000 -16.000000 140 139 136
-4.750000 -1.500000 -16.000000 139 139 141
-4.687500 -1.500000 -16.000000 137 137 139
-4.625000 -1.500000 -16.000000 137 136 133
-4.562500 -1.500000 -16.000000 138 137 134
-4.500000 -1.500000 -16.000000 133 132 139
-4.437500 -1.500000 -16.000000 130 129 136
-4.375000 -1.500000 -16.000000 131 130 141
-4.312500 -1.500000 -16.000000 131 130 141
-4.250000 -1.500000 -16.000000 127 129 137
-3.870036 -1.386282 -14.787004 127 129 137
-3.705263 -1.347368 -14.371930 125 127 133
-3.573883 -1.319588 -14.075602 121 123 129
-3.390728 -1.271523 -13.562914 122 121 130
-3.315789 -1.263158 -13.473684 119 118 127
-3.284768 -1.271523 -13.562914 113 119 126
-3.437500 -1.500000 -16.000000 106 111 127
-3.375000 -1.500000 -16.000000 111 113 117
-3.312500 -1.500000 -16.000000 107 109 113
-3.250000 -1.500000 -16.000000 105 107 124
-3.187500 -1.500000 -16.000000 104 106 123
-3.125000 -1.500000 -16.000000 100 108 130
-3.062500 -1.500000 -16.000000 99 107 129
-3.000000 -1.500000 -16.000000 100 104 125
-2.937500 -1.500000 -16.000000 100 104 125
-2.875000 -1.500000 -16.000000 95 104 121
-2.812500 -1.500000 -16.000000 95 104 121
-2.750000 -1.500000 -16.000000 97 103 121
-2.687500 -1.500000 -16.000000 93 99 117
-2.562500 -1.500000 -16.000000 94 97 123
-2.214533 -1.328720 -14.173011 88 97 125
-2.151724 -1.324138 -14.124138 85 94 122
-2.375000 -1.500000 -16.000000 87 92 117
-2.312500 -1.500000 -16.000000 87 92 117
-2.250000 -1.500000 -16.000000 86 93 120
-2.187500 -1.500000 -16.000000 86 93 120
-2.125000 -1.500000 -16.000000 83 97 108
-2.062500 -1.500000 -16.000000 84 98 109
-2.000000 -1.500000 -16.000000 96 95 104
-1.937500 -1.500000 -16.000000 95 94 103
-1.875000 -1.500000 -16.000000 88 84 87
-1.812500 -1.500000 -16.000000 87 83 86
-1.750000 -1.500000 -16.000000 81 77 78
-1.687500 -1.500000 -16.000000 79 75 76
1.297778 -0.426667 -4.551111 54 71 103
1.315556 -0.426667 -4.551111 57 72 103
1.333333 -0.426667 -4.551111 57 72 103
1.351111 -0.426667 -4.551111 60 70 107
1.368889 -0.426667 -4.551111 60 70 107
1.386667 -0.426667 -4.551111 61 71 108
1.418960 -0.391437 -4.175331 53 69 120
1.425101 -0.388664 -4.145749 59 67 114
1.441296 -0.388664 -4.145749 59 67 114
1.460381 -0.385155 -4.108325 51 69 108
1.460317 -0.380952 -4.063492 49 69 96
1.606911 -0.414687 -4.423326 51 71 98
1.624190 -0.414687 -4.423326 53 73 98
1.639698 -0.414239 -4.418554 50 70 95
1.655172 -0.413793 -4.413793 51 67 104
1.672414 -0.413793 -4.413793 53 69 106
1.689655 -0.413793 -4.413793 58 67 109
1.619048 -0.380952 -4.063492 49 66 121
1.634921 -0.380952 -4.063492 48 65 120
1.650794 -0.380952 -4.063492 52 63 122
6.875000 -1.500000 -16.000000 47 71 108
6.937500 -1.500000 -16.000000 49 73 110
7.000000 -1.500000 -16.000000 51 67 118
7.062500 -1.500000 -16.000000 48 64 115
7.125000 -1.500000 -16.000000 51 65 112
7.187500 -1.500000 -16.000000 54 68 115
7.250000 -1.500000 -16.000000 47 71 112
7.312500 -1.500000 -16.000000 45 69 110
7.375000 -1.500000 -16.000000 48 70 110
7.437500 -1.500000 -16.000000 47 69 109
7.191011 -1.438202 -15.340824 49 69 109
7.562500 -1.500000 -16.000000 51 71 111
7.176471 -1.411765 -15.058824 49 68 104
6.881119 -1.342657 -14.321678 52 71 107
6.888889 -1.333333 -14.222222 54 73 105
6.920415 -1.328720 -14.173011 52 71 103
7.000000 -1.333333 -14.222222 47 69 111
6.922636 -1.100286 -11.736390 48 62 109
6.948571 -1.097143 -11.702857 45 65 119
6.974359 -1.094017 -11.669516 43 63 117
9.812500 -1.500000 -16.000000 43 64 111
9.875000 -1.500000 -16.000000 43 63 115
9.937500 -1.500000 -16.000000 43 63 115
-5.937500 -1.562500 -16.000000 159 160 154
-5.875000 -1.562500 -16.000000 158 159 155
-5.812500 -1.562500 -16.000000 156 157 153
-5.750000 -1.562500 -16.000000 153 158 146
-5.687500 -1.562500 -16.000000 153 158 146
-5.625000 -1.562500 -16.000000 154 159 145
-5.562500 -1.562500 -16.000000 152 157 143
-5.500000 -1.562500 -16.000000 152 152 154
-5.437500 -1.562500 -16.000000 150 150 152
-5.375000 -1.562500 -16.000000 149 150 146
-5.312500 -1.562500 -16.000000 147 148 144
-5.250000 -1.562500 -16.000000 143 147 140
-5.187500 -1.562500 -16.000000 143 147 140
-5.125000 -1.562500 -16.000000 142 148 138
-5.062500 -1.562500 -16.000000 141 147 137
-5.000000 -1.562500 -16.000000 136 136 136
-4.937500 -1.562500 -16.000000 137 137 137
-4.875000 -1.562500 -16.000000 139 140 134
-4.812500 -1.562500 -16.000000 139 140 134
-4.750000 -1.562500 -16.000000 138 138 142
-4.687500 -1.562500 -16.000000 138 138 142
-4.625000 -1.562500 -16.000000 139 137 142
-4.562500 -1.562500 -16.000000 137 135 140
-4.500000 -1.562500 -16.000000 130 133 132
-4.437500 -1.562500 -16.000000 128 131 130
-4.375000 -1.562500 -16.000000 131 131 131
-4.312500 -1.562500 -16.000000 131 131 131
-4.250000 -1.562500 -16.000000 126 125 132
-4.125000 -1.562500 -16.000000 123 127 130
-4.062500 -1.562500 -16.000000 120 124 127
-4.000000 -1.562500 -16.000000 121 120 127
-3.937500 -1.562500 -16.000000 118 117 124
-3.875000 -1.562500 -16.000000 116 118 126
-3.812500 -1.562500 -16.000000 118 120 128
-3.750000 -1.562500 -16.000000 113 119 128
-3.687500 -1.562500 -16.000000 110 116 125
-3.625000 -1.562500 -16.000000 108 115 126
-3.562500 -1.562500 -16.000000 107 114 125
-3.500000 -1.562500 -16.000000 106 112 128
-3.308271 -1.503759 -15.398497 106 112 128
-3.248120 -1.503759 -15.398497 101 107 114
-3.312500 -1.562500 -16.000000 103 109 116
-3.250000 -1.562500 -16.000000 102 108 124
-3.187500 -1.562500 -16.000000 102 108 124
-3.125000 -1.562500 -16.000000 97 107 126
-3.062500 -1.562500 -16.000000 97 107 126
-3.000000 -1.562500 -16.000000 97 107 119
-2.937500 -1.562500 -16.000000 94 104 116
-2.875000 -1.562500 -16.000000 90 100 108
-2.812500 -1.562500 -16.000000 94 104 112
-2.750000 -1.562500 -16.000000 96 102 120
-2.687500 -1.562500 -16.000000 94 100 118
-2.625000 -1.562500 -16.000000 95 97 128
-2.562500 -1.562500 -16.000000 95 97 128
-2.500000 -1.562500 -16.000000 89 98 126
-2.437500 -1.562500 -16.000000 86 95 123
-2.375000 -1.562500 -16.000000 89 94 117
-2.312500 -1.562500 -16.000000 89 94 117
-2.250000 -1.562500 -16.000000 84 97 113
-2.187500 -1.562500 -16.000000 83 96 112
-2.125000 -1.562500 -16.000000 88 96 104
-2.062500 -1.562500 -16.000000 89 97 105
-2.000000 -1.562500 -16.000000 98 92 103
-1.937500 -1.562500 -16.000000 95 89 100
-1.875000 -1.562500 -16.000000 88 84 87
-1.812500 -1.562500 -16.000000 89 85 88
-1.750000 -1.562500 -16.000000 85 82 77
-1.687500 -1.562500 -16.000000 80 77 72
-1.625000 -1.562500 -16.000000 80 70 70
1.296337 -0.443951 -4.546060 59 70 102
1.312639 -0.443459 -4.541020 59 71 105
1.330377 -0.443459 -4.541020 59 71 105
1.346622 -0.442968 -4.535991 62 68 113
1.365854 -0.443459 -4.541020 62 68 113
1.418960 -0.407747 -4.175331 54 67 114
1.425101 -0.404858 -4.145749 55 68 111
1.441296 -0.404858 -4.145749 56 69 112
1.641469 -0.431965 -4.423326 52 68 103
1.658747 -0.431965 -4.423326 56 67 108
1.619048 -0.396825 -4.063492 51 68 114
1.634921 -0.396825 -4.063492 49 66 112
1.650794 -0.396825 -4.063492 49 66 114
6.875000 -1.562500 -16.000000 46 68 108
6.937500 -1.562500 -16.000000 48 70 110
7.000000 -1.562500 -16.000000 50 68 120
7.062500 -1.562500 -16.000000 48 66 118
7.125000 -1.562500 -16.000000 51 67 120
7.187500 -1.562500 -16.000000 53 69 122
7.250000 -1.562500 -16.000000 47 70 116
7.312500 -1.562500 -16.000000 47 70 116
7.071161 -1.498127 -15.340824 50 69 114
7.104477 -1.492537 -15.283582 50 69 114
7.137547 -1.486989 -15.226766 55 68 113
7.223881 -1.492537 -15.283582 56 69 114
7.072464 -1.449275 -14.840580 46 63 109
6.881119 -1.398601 -14.321678 48 65 111
6.888889 -1.388889 -14.222222 46 71 105
6.944445 -1.388889 -14.222222 45 70 104
6.948571 -1.142857 -11.702857 45 62 117
9.812500 -1.562500 -16.000000 41 64 112
9.875000 -1.562500 -16.000000 44 64 116
9.937500 -1.562500 -16.000000 43 63 115
-5.937500 -1.625000 -16.000000 159 160 154
-5.875000 -1.625000 -16.000000 158 158 158
-5.812500 -1.625000 -16.000000 157 157 157
-5.750000 -1.625000 -16.000000 155 157 144
-5.687500 -1.625000 -16.000000 153 155 142
-5.625000 -1.625000 -16.000000 149 151 140
-5.562500 -1.625000 -16.000000 149 151 140
-5.500000 -1.625000 -16.000000 151 151 151
-5.437500 -1.625000 -16.000000 150 150 150
-5.375000 -1.625000 -16.000000 150 149 144
-5.312500 -1.625000 -16.000000 146 145 140
-5.250000 -1.625000 -16.000000 143 144 138
-5.187500 -1.625000 -16.000000 144 145 139
-5.125000 -1.625000 -16.000000 139 148 137
-5.062500 -1.625000 -16.000000 134 143 132
-5.000000 -1.625000 -16.000000 133 138 133
-4.937500 -1.625000 -16.000000 136 141 136
-4.875000 -1.625000 -16.000000 139 143 138
-4.812500 -1.625000 -16.000000 138 142 137
-4.750000 -1.625000 -16.000000 138 138 140
-4.687500 -1.625000 -16.000000 137 137 139
-4.625000 -1.625000 -16.000000 138 138 142
-4.562500 -1.625000 -16.000000 134 134 138
-4.500000 -1.625000 -16.000000 129 134 132
-4.437500 -1.625000 -16.000000 129 134 132
-4.375000 -1.625000 -16.000000 131 132 126
-4.312500 -1.625000 -16.000000 129 130 124
-4.250000 -1.625000 -16.000000 125 125 129
-4.187500 -1.625000 -16.000000 126 126 130
-4.125000 -1.625000 -16.000000 124 126 132
-4.062500 -1.625000 -16.000000 120 122 128
-3.875000 -1.625000 -16.000000 116 117 128
-3.812500 -1.625000 -16.000000 117 118 129
-3.750000 -1.625000 -16.000000 114 115 128
-3.687500 -1.625000 -16.000000 111 112 125
-3.625000 -1.625000 -16.000000 107 115 121
-3.562500 -1.625000 -16.000000 106 114 120
-3.500000 -1.625000 -16.000000 102 114 121
-3.320755 -1.569811 -15.456604 103 115 122
-3.260377 -1.569811 -15.456604 102 112 122
-3.312500 -1.625000 -16.000000 100 110 120
-3.250000 -1.625000 -16.000000 99 109 119
-3.187500 -1.625000 -16.000000 98 108 118
-3.125000 -1.625000 -16.000000 97 108 124
-3.062500 -1.625000 -16.000000 98 109 125
-3.000000 -1.625000 -16.000000 97 105 127
-2.937500 -1.625000 -16.000000 93 101 123
-2.875000 -1.625000 -16.000000 99 100 111
-2.812500 -1.625000 -16.000000 100 101 112
-2.750000 -1.625000 -16.000000 96 103 116
-2.687500 -1.625000 -16.000000 92 99 112
-2.625000 -1.625000 -16.000000 93 97 116
-2.562500 -1.625000 -16.000000 94 98 117
-2.500000 -1.625000 -16.000000 89 97 121
-2.437500 -1.625000 -16.000000 87 95 119
-2.375000 -1.625000 -16.000000 91 95 118
-2.312500 -1.625000 -16.000000 89 93 116
-2.250000 -1.625000 -16.000000 89 94 108
-2.187500 -1.625000 -16.000000 87 92 106
-2.125000 -1.625000 -16.000000 86 92 112
-2.062500 -1.625000 -16.000000 87 93 113
-2.000000 -1.625000 -16.000000 97 91 106
-1.937500 -1.625000 -16.000000 94 88 103
-1.875000 -1.625000 -16.000000 95 86 89
-1.812500 -1.625000 -16.000000 94 85 88
-1.750000 -1.625000 -16.000000 89 83 70
-1.687500 -1.625000 -16.000000 82 76 63
-1.625000 -1.625000 -16.000000 80 69 75
-1.562500 -1.625000 -16.000000 80 69 75
-1.500000 -1.625000 -16.000000 91 78 82
-1.437500 -1.625000 -16.000000 90 77 81
-1.375000 -1.625000 -16.000000 94 79 67
-1.312500 -1.625000 -16.000000 97 82 70
-1.250000 -1.625000 -16.000000 95 87 75
-1.187500 -1.625000 -16.000000 97 89 77
-1.125000 -1.625000 -16.000000 100 87 81
1.328904 -0.460687 -4.535991 56 71 102
1.339207 -0.458150 -4.511013 60 72 106
1.352360 -0.456641 -4.496158 60 72 106
1.374449 -0.458150 -4.511013 58 68 116
1.403226 -0.419355 -4.129032 57 65 112
1.413655 -0.417671 -4.112450 57 68 111
1.424000 -0.416000 -4.096000 57 68 111
1.428571 -0.412698 -4.063492 57 67 113
1.444444 -0.412698 -4.063492 57 67 113
1.589633 -0.449244 -4.423326 56 70 110
1.606911 -0.449244 -4.423326 56 70 110
1.624190 -0.449244 -4.423326 49 64 106
1.641469 -0.449244 -4.423326 52 67 109
1.655172 -0.448276 -4.413793 57 65 112
1.672414 -0.448276 -4.413793 58 66 113
1.555556 -0.412698 -4.063492 51 66 108
1.571429 -0.412698 -4.063492 53 68 110
1.587302 -0.412698 -4.063492 53 67 105
1.603175 -0.412698 -4.063492 53 67 105
1.619048 -0.412698 -4.063492 57 68 107
1.634921 -0.412698 -4.063492 54 65 104
1.650794 -0.412698 -4.063492 52 67 107
1.666667 -0.412698 -4.063492 53 68 108
1.682540 -0.412698 -4.063492 53 67 107
6.875000 -1.625000 -16.000000 50 67 124
6.937500 -1.625000 -16.000000 50 67 124
7.000000 -1.625000 -16.000000 47 69 111
7.062500 -1.625000 -16.000000 48 70 112
7.125000 -1.625000 -16.000000 49 70 119
7.187500 -1.625000 -16.000000 49 70 119
7.250000 -1.625000 -16.000000 45 68 112
7.011236 -1.558052 -15.340824 45 68 112
7.018588 -1.546468 -15.226766 52 67 111
7.078067 -1.546468 -15.226766 53 68 112
6.956522 -1.507246 -14.840580 54 67 114
7.014493 -1.507246 -14.840580 53 66 113
6.946619 -1.480427 -14.576512 47 63 114
6.905263 -1.459649 -14.371930 44 60 111
9.875000 -1.625000 -16.000000 47 64 119
9.937500 -1.625000 -16.000000 42 59 114
-5.937500 -1.687500 -16.000000 156 157 153
-5.875000 -1.687500 -16.000000 157 158 152
-5.812500 -1.687500 -16.000000 158 159 153
-5.750000 -1.687500 -16.000000 159 160 147
-5.687500 -1.687500 -16.000000 155 156 143
-5.625000 -1.687500 -16.000000 149 151 138
-5.562500 -1.687500 -16.000000 148 150 137
-5.500000 -1.687500 -16.000000 148 149 143
-5.437500 -1.687500 -16.000000 147 148 142
-5.375000 -1.687500 -16.000000 146 147 143
-5.312500 -1.687500 -16.000000 144 145 141
-5.250000 -1.687500 -16.000000 141 145 140
-5.187500 -1.687500 -16.000000 141 145 140
-5.125000 -1.687500 -16.000000 142 143 137
-5.062500 -1.687500 -16.000000 139 140 134
-5.000000 -1.687500 -16.000000 133 145 126
-4.937500 -1.687500 -16.000000 133 145 126
-4.875000 -1.687500 -16.000000 134 143 132
-4.812500 -1.687500 -16.000000 133 142 131
-4.750000 -1.687500 -16.000000 136 136 136
-4.687500 -1.687500 -16.000000 136 136 136
-4.625000 -1.687500 -16.000000 133 136 137
-4.562500 -1.687500 -16.000000 130 133 134
-4.500000 -1.687500 -16.000000 128 133 133
-4.437500 -1.687500 -16.000000 127 132 132
-4.375000 -1.687500 -16.000000 129 130 126
-4.312500 -1.687500 -16.000000 127 128 124
-4.250000 -1.687500 -16.000000 123 125 133
-4.187500 -1.687500 -16.000000 124 126 134
-4.125000 -1.687500 -16.000000 121 125 130
-4.062500 -1.687500 -16.000000 119 123 128
-4.000000 -1.687500 -16.000000 119 123 126
-3.937500 -1.687500 -16.000000 114 118 121
-3.875000 -1.687500 -16.000000 114 119 119
-3.812500 -1.687500 -16.000000 114 119 119
-3.750000 -1.687500 -16.000000 109 116 129
-3.687500 -1.687500 -16.000000 107 114 127
-3.625000 -1.687500 -16.000000 108 114 123
-3.562500 -1.687500 -16.000000 106 112 121
-3.381132 -1.630189 -15.456604 103 112 113
-3.320755 -1.630189 -15.456604 105 114 115
-3.260377 -1.630189 -15.456604 105 110 122
-3.312500 -1.687500 -16.000000 103 108 120
-3.250000 -1.687500 -16.000000 104 105 120
-3.187500 -1.687500 -16.000000 104 105 120
-3.125000 -1.687500 -16.000000 102 104 123
-3.062500 -1.687500 -16.000000 101 103 122
-3.000000 -1.687500 -16.000000 95 102 129
-2.937500 -1.687500 -16.000000 94 101 128
-2.875000 -1.687500 -16.000000 96 101 113
-2.812500 -1.687500 -16.000000 99 104 116
-2.750000 -1.687500 -16.000000 91 100 115
-2.687500 -1.687500 -16.000000 91 100 115
-2.625000 -1.687500 -16.000000 88 99 111
-2.562500 -1.687500 -16.000000 88 99 111
-2.500000 -1.687500 -16.000000 86 99 117
-2.437500 -1.687500 -16.000000 83 96 114
-2.375000 -1.687500 -16.000000 90 91 115
-2.312500 -1.687500 -16.000000 91 92 116
-2.250000 -1.687500 -16.000000 91 92 114
-2.187500 -1.687500 -16.000000 89 90 112
-2.125000 -1.687500 -16.000000 83 90 119
-2.062500 -1.687500 -16.000000 84 91 120
-2.000000 -1.687500 -16.000000 97 91 106
-1.937500 -1.687500 -16.000000 98 92 107
-1.875000 -1.687500 -16.000000 103 93 96
-1.812500 -1.687500 -16.000000 98 88 91
-1.750000 -1.687500 -16.000000 91 82 77
-1.687500 -1.687500 -16.000000 83 74 69
-1.625000 -1.687500 -16.000000 80 70 73
-1.562500 -1.687500 -16.000000 81 71 74
-1.500000 -1.687500 -16.000000 85 76 79
-1.437500 -1.687500 -16.000000 86 77 80
-1.375000 -1.687500 -16.000000 98 78 70
-1.312500 -1.687500 -16.000000 100 80 72
-1.250000 -1.687500 -16.000000 98 84 81
-1.187500 -1.687500 -16.000000 99 85 82
-1.125000 -1.687500 -16.000000 96 87 80
-1.062500 -1.687500 -16.000000 94 85 78
1.352360 -0.474204 -4.496158 57 74 104
1.366922 -0.473165 -4.486309 55 68 111
1.253968 -0.428571 -4.063492 54 67 110
1.333333 -0.428571 -4.063492 56 70 110
1.349206 -0.428571 -4.063492 55 69 109
1.377377 -0.432432 -4.100100 57 66 108
1.393393 -0.432432 -4.100100 57 66 108
1.408000 -0.432000 -4.096000 56 67 110
1.412698 -0.428571 -4.063492 57 68 111
1.428571 -0.428571 -4.063492 58 67 111
1.444444 -0.428571 -4.063492 57 66 110
1.460317 -0.428571 -4.063492 55 69 109
1.476190 -0.428571 -4.063492 53 67 107
1.492064 -0.428571 -4.063492 52 65 110
1.507936 -0.428571 -4.063492 52 65 110
1.523810 -0.428571 -4.063492 54 68 119
1.539683 -0.428571 -4.063492 54 68 119
1.555556 -0.428571 -4.063492 56 70 110
1.571429 -0.428571 -4.063492 56 70 110
1.587302 -0.428571 -4.063492 53 68 108
1.603175 -0.428571 -4.063492 53 68 108
1.619048 -0.428571 -4.063492 55 69 109
1.634921 -0.428571 -4.063492 53 67 107
1.650794 -0.428571 -4.063492 55 66 107
1.666667 -0.428571 -4.063492 55 66 107
1.682540 -0.428571 -4.063492 49 69 105
1.698413 -0.428571 -4.063492 50 70 106
6.812500 -1.687500 -16.000000 51 67 102
6.875000 -1.687500 -16.000000 51 68 114
6.937500 -1.687500 -16.000000 51 68 114
7.000000 -1.687500 -16.000000 50 68 109
7.062500 -1.687500 -16.000000 51 69 110
7.125000 -1.687500 -16.000000 55 69 109
7.187500 -1.687500 -16.000000 51 65 105
6.977444 -1.624060 -15.398497 48 66 107
6.959108 -1.605948 -15.226766 47 65 106
6.941176 -1.588235 -15.058824 51 69 110
7.000000 -1.588235 -15.058824 50 68 109
6.956522 -1.565217 -14.840580 46 69 115
7.014493 -1.565217 -14.840580 45 68 114
6.946619 -1.537367 -14.576512 48 64 115
8.000000 -1.687500 -16.000000 43 71 104
8.062500 -1.687500 -16.000000 43 71 104
7.626168 -1.345794 -12.760124 43 63 117
7.676013 -1.345794 -12.760124 41 63 116
7.750000 -1.350000 -12.800000 41 63 116
7.800000 -1.350000 -12.800000 40 64 121
9.812500 -1.687500 -16.000000 41 65 122
9.875000 -1.687500 -16.000000 43 64 124
9.937500 -1.687500 -16.000000 39 60 120
-5.937500 -1.750000 -16.000000 159 156 151
-5.875000 -1.750000 -16.000000 156 158 145
-5.812500 -1.750000 -16.000000 155 157 144
-5.750000 -1.750000 -16.000000 151 152 137
-5.687500 -1.750000 -16.000000 152 153 138
-5.625000 -1.750000 -16.000000 153 150 141
-5.562500 -1.750000 -16.000000 150 147 138
-5.500000 -1.750000 -16.000000 147 148 142
-5.437500 -1.750000 -16.000000 145 146 140
-5.375000 -1.750000 -16.000000 143 146 145
-5.312500 -1.750000 -16.000000 144 147 146
-5.250000 -1.750000 -16.000000 145 145 145
-5.187500 -1.750000 -16.000000 141 141 141
-5.125000 -1.750000 -16.000000 139 140 134
-5.062500 -1.750000 -16.000000 140 141 135
-5.000000 -1.750000 -16.000000 138 143 127
-4.937500 -1.750000 -16.000000 137 142 126
-4.875000 -1.750000 -16.000000 134 142 136
-4.812500 -1.750000 -16.000000 130 138 132
-4.750000 -1.750000 -16.000000 134 135 131
-4.687500 -1.750000 -16.000000 135 136 132
-4.625000 -1.750000 -16.000000 135 135 135
-4.562500 -1.750000 -16.000000 129 129 129
-4.500000 -1.750000 -16.000000 127 128 139
-4.437500 -1.750000 -16.000000 126 127 138
-4.375000 -1.750000 -16.000000 127 126 133
-4.312500 -1.750000 -16.000000 126 125 132
-4.250000 -1.750000 -16.000000 122 124 132
-4.187500 -1.750000 -16.000000 122 124 132
-4.125000 -1.750000 -16.000000 120 124 129
-4.062500 -1.750000 -16.000000 120 124 129
-4.000000 -1.750000 -16.000000 118 124 133
-3.937500 -1.750000 -16.000000 114 120 129
-3.875000 -1.750000 -16.000000 112 119 123
-3.812500 -1.750000 -16.000000 111 118 122
-3.595506 -1.677903 -15.340824 113 114 127
-3.509294 -1.665428 -15.226766 112 113 126
-3.462687 -1.671642 -15.283582 110 112 129
-3.562500 -1.750000 -16.000000 109 111 128
-3.500000 -1.750000 -16.000000 104 109 132
-3.437500 -1.750000 -16.000000 102 107 130
-3.375000 -1.750000 -16.000000 101 107 127
-3.312500 -1.750000 -16.000000 101 107 127
-3.250000 -1.750000 -16.000000 103 108 122
-3.187500 -1.750000 -16.000000 101 106 120
-3.125000 -1.750000 -16.000000 98 104 124
-3.062500 -1.750000 -16.000000 97 103 123
-3.000000 -1.750000 -16.000000 93 102 119
-2.937500 -1.750000 -16.000000 93 102 119
-2.875000 -1.750000 -16.000000 96 102 120
-2.812500 -1.750000 -16.000000 95 101 119
-2.750000 -1.750000 -16.000000 97 97 126
-2.687500 -1.750000 -16.000000 95 95 124
-2.625000 -1.750000 -16.000000 88 99 115
-2.562500 -1.750000 -16.000000 88 99 115
-2.500000 -1.750000 -16.000000 88 97 114
-2.437500 -1.750000 -16.000000 87 96 113
-2.375000 -1.750000 -16.000000 92 91 116
-2.312500 -1.750000 -16.000000 92 91 116
-2.250000 -1.750000 -16.000000 89 94 121
-2.187500 -1.750000 -16.000000 87 92 119
-2.125000 -1.750000 -16.000000 83 92 118
-2.062500 -1.750000 -16.000000 83 92 118
-2.000000 -1.750000 -16.000000 97 91 106
-1.812500 -1.750000 -16.000000 102 92 95
-1.750000 -1.750000 -16.000000 91 82 87
-1.562500 -1.750000 -16.000000 81 71 74
-1.500000 -1.750000 -16.000000 85 77 76
-1.437500 -1.750000 -16.000000 87 79 78
-1.375000 -1.750000 -16.000000 96 78 74
-1.312500 -1.750000 -16.000000 98 80 76
-1.250000 -1.750000 -16.000000 104 83 82
-1.187500 -1.750000 -16.000000 106 85 84
-1.125000 -1.750000 -16.000000 100 87 79
-1.062500 -1.750000 -16.000000 98 85 77
1.238095 -0.444444 -4.063492 56 64 111
1.253968 -0.444444 -4.063492 60 68 115
1.269841 -0.444444 -4.063492 57 68 111
1.317460 -0.444444 -4.063492 57 69 105
1.333333 -0.444444 -4.063492 57 69 105
1.349206 -0.444444 -4.063492 55 67 103
1.365079 -0.444444 -4.063492 52 66 104
1.380952 -0.444444 -4.063492 52 66 104
1.396825 -0.444444 -4.063492 55 66 109
1.412698 -0.444444 -4.063492 57 68 111
1.428571 -0.444444 -4.063492 57 66 110
1.444444 -0.444444 -4.063492 56 65 109
1.460317 -0.444444 -4.063492 53 68 108
1.476190 -0.444444 -4.063492 52 67 107
1.492064 -0.444444 -4.063492 53 63 109
1.507936 -0.444444 -4.063492 55 65 111
1.523810 -0.444444 -4.063492 54 65 122
1.539683 -0.444444 -4.063492 54 65 122
1.555556 -0.444444 -4.063492 55 69 120
1.571429 -0.444444 -4.063492 53 67 118
1.587302 -0.444444 -4.063492 50 68 109
1.603175 -0.444444 -4.063492 50 68 109
1.619048 -0.444444 -4.063492 54 67 110
1.634921 -0.444444 -4.063492 52 65 108
1.650794 -0.444444 -4.063492 54 65 108
1.666667 -0.444444 -4.063492 54 65 108
1.682540 -0.444444 -4.063492 47 70 107
1.698413 -0.444444 -4.063492 45 68 105
1.714286 -0.444444 -4.063492 52 67 100
6.812500 -1.750000 -16.000000 53 68 101
6.875000 -1.750000 -16.000000 51 70 104
6.937500 -1.750000 -16.000000 50 69 103
7.000000 -1.750000 -16.000000 51 69 110
7.062500 -1.750000 -16.000000 51 69 110
7.125000 -1.750000 -16.000000 55 69 105
7.187500 -1.750000 -16.000000 51 65 101
6.951311 -1.677903 -15.340824 52 66 106
6.959108 -1.665428 -15.226766 53 67 107
6.941176 -1.647059 -15.058824 50 67 115
7.000000 -1.647059 -15.058824 50 67 115
6.956522 -1.623188 -14.840580 45 69 110
7.014493 -1.623188 -14.840580 46 70 111
6.946619 -1.594306 -14.576512 47 66 111
7.937500 -1.750000 -16.000000 44 68 107
8.000000 -1.750000 -16.000000 46 68 110
8.062500 -1.750000 -16.000000 46 68 110
7.600000 -1.400000 -12.800000 50 63 117
7.650000 -1.400000 -12.800000 48 61 115
7.700000 -1.400000 -12.800000 45 63 115
7.750000 -1.400000 -12.800000 45 63 115
7.800000 -1.400000 -12.800000 39 63 120
7.850000 -1.400000 -12.800000 39 63 120
7.900000 -1.400000 -12.800000 40 62 113
7.950000 -1.400000 -12.800000 40 62 113
-5.937500 -1.812500 -16.000000 160 155 151
-5.875000 -1.812500 -16.000000 158 155 146
-5.812500 -1.812500 -16.000000 157 154 145
-5.750000 -1.812500 -16.000000 152 155 139
-5.687500 -1.812500 -16.000000 151 154 138
-5.625000 -1.812500 -16.000000 150 149 144
-5.562500 -1.812500 -16.000000 148 147 142
-5.500000 -1.812500 -16.000000 146 146 146
-5.437500 -1.812500 -16.000000 143 143 143
-5.375000 -1.812500 -16.000000 144 144 146
-5.312500 -1.812500 -16.000000 144 144 146
-5.250000 -1.812500 -16.000000 143 143 143
-5.187500 -1.812500 -16.000000 141 141 141
-5.125000 -1.812500 -16.000000 140 141 137
-5.062500 -1.812500 -16.000000 141 142 138
-5.000000 -1.812500 -16.000000 139 141 130
-4.937500 -1.812500 -16.000000 139 141 130
-4.875000 -1.812500 -16.000000 139 140 136
-4.812500 -1.812500 -16.000000 138 139 135
-4.750000 -1.812500 -16.000000 135 137 128
-4.687500 -1.812500 -16.000000 135 137 128
-4.625000 -1.812500 -16.000000 136 137 133
-4.562500 -1.812500 -16.000000 128 129 125
-4.500000 -1.812500 -16.000000 129 128 135
-4.437500 -1.812500 -16.000000 128 127 134
-4.375000 -1.812500 -16.000000 128 127 136
-4.312500 -1.812500 -16.000000 129 128 137
-4.250000 -1.812500 -16.000000 127 127 131
-4.187500 -1.812500 -16.000000 123 123 127
-4.125000 -1.812500 -16.000000 119 122 123
-4.062500 -1.812500 -16.000000 119 122 123
-4.000000 -1.812500 -16.000000 110 120 130
-3.937500 -1.812500 -16.000000 108 118 128
-3.875000 -1.812500 -16.000000 112 119 123
-3.812500 -1.812500 -16.000000 111 118 122
-3.582090 -1.731343 -15.283582 115 113 127
-3.509294 -1.724907 -15.226766 113 111 125
-3.462687 -1.731343 -15.283582 114 111 132
-3.441509 -1.750943 -15.456604 113 110 131
-3.500000 -1.812500 -16.000000 107 108 132
-3.437500 -1.812500 -16.000000 106 107 131
-3.375000 -1.812500 -16.000000 100 109 124
-3.312500 -1.812500 -16.000000 99 108 123
-3.250000 -1.812500 -16.000000 99 109 121
-3.187500 -1.812500 -16.000000 98 108 120
-3.125000 -1.812500 -16.000000 96 105 122
-3.062500 -1.812500 -16.000000 96 105 122
-3.000000 -1.812500 -16.000000 94 104 112
-2.937500 -1.812500 -16.000000 93 103 111
-2.875000 -1.812500 -16.000000 96 106 114
-2.812500 -1.812500 -16.000000 91 101 109
-2.750000 -1.812500 -16.000000 92 100 124
-2.687500 -1.812500 -16.000000 91 99 123
-2.625000 -1.812500 -16.000000 91 96 121
-2.562500 -1.812500 -16.000000 91 96 121
-2.500000 -1.812500 -16.000000 94 93 116
-2.437500 -1.812500 -16.000000 93 92 115
-2.375000 -1.812500 -16.000000 92 92 119
-2.312500 -1.812500 -16.000000 93 93 120
-2.250000 -1.812500 -16.000000 86 95 121
-2.187500 -1.812500 -16.000000 84 93 119
-2.125000 -1.812500 -16.000000 85 92 121
-2.062500 -1.812500 -16.000000 83 90 119
-1.541528 -1.541528 -13.607973 105 95 95
-1.473684 -1.526316 -13.473684 90 84 86
-1.500000 -1.812500 -16.000000 90 76 75
-1.437500 -1.812500 -16.000000 93 79 78
-1.375000 -1.812500 -16.000000 98 80 76
-1.312500 -1.812500 -16.000000 99 81 77
-1.250000 -1.812500 -16.000000 98 83 88
-1.187500 -1.812500 -16.000000 98 83 88
-1.125000 -1.812500 -16.000000 101 88 78
1.253968 -0.460317 -4.063492 59 70 113
1.269841 -0.460317 -4.063492 59 67 114
1.285714 -0.460317 -4.063492 60 68 115
1.301587 -0.460317 -4.063492 61 71 110
1.317460 -0.460317 -4.063492 59 69 108
1.333333 -0.460317 -4.063492 54 70 107
1.349206 -0.460317 -4.063492 52 68 105
1.365079 -0.460317 -4.063492 51 67 102
1.380952 -0.460317 -4.063492 52 68 103
1.396825 -0.460317 -4.063492 52 68 105
1.412698 -0.460317 -4.063492 53 69 106
1.428571 -0.460317 -4.063492 56 64 111
1.444444 -0.460317 -4.063492 56 64 111
1.460317 -0.460317 -4.063492 55 63 110
1.476190 -0.460317 -4.063492 55 63 110
1.492064 -0.460317 -4.063492 56 64 111
1.507936 -0.460317 -4.063492 55 63 110
1.523810 -0.460317 -4.063492 56 64 124
1.539683 -0.460317 -4.063492 56 64 124
1.555556 -0.460317 -4.063492 53 67 116
1.571429 -0.460317 -4.063492 53 67 116
1.587302 -0.460317 -4.063492 52 68 105
1.603175 -0.460317 -4.063492 51 67 104
1.619048 -0.460317 -4.063492 52 66 106
1.634921 -0.460317 -4.063492 53 67 107
1.650794 -0.460317 -4.063492 47 69 109
1.666667 -0.460317 -4.063492 46 68 108
1.682540 -0.460317 -4.063492 47 65 113
1.698413 -0.460317 -4.063492 49 67 115
1.714286 -0.460317 -4.063492 55 66 105
1.730159 -0.460317 -4.063492 55 66 105
6.875000 -1.812500 -16.000000 51 70 106
6.937500 -1.812500 -16.000000 49 68 104
7.000000 -1.812500 -16.000000 48 69 116
7.062500 -1.812500 -16.000000 47 68 115
7.125000 -1.812500 -16.000000 50 67 111
6.891386 -1.737828 -15.340824 49 66 110
6.925373 -1.731343 -15.283582 49 62 109
6.959108 -1.724907 -15.226766 51 64 111
6.941176 -1.705882 -15.058824 53 66 111
7.025830 -1.712177 -15.114391 53 66 111
7.084871 -1.712177 -15.114391 52 64 114
7.875000 -1.812500 -16.000000 46 65 110
7.937500 -1.812500 -16.000000 46 65 110
8.000000 -1.812500 -16.000000 47 64 108
8.062500 -1.812500 -16.000000 48 65 109
8.125000 -1.812500 -16.000000 50 69 105
8.187500 -1.812500 -16.000000 51 70 106
7.600000 -1.450000 -12.800000 47 63 116
7.673981 -1.454545 -12.840125 44 60 113
7.700000 -1.450000 -12.800000 44 62 112
7.774295 -1.454545 -12.840125 46 64 114
7.800000 -1.450000 -12.800000 42 62 116
7.850000 -1.450000 -12.800000 41 61 115
7.900000 -1.450000 -12.800000 41 64 112
7.851852 -1.432099 -12.641975 41 64 112
-5.937500 -1.875000 -16.000000 159 156 151
-5.875000 -1.875000 -16.000000 158 155 146
-5.812500 -1.875000 -16.000000 157 154 145
-5.750000 -1.875000 -16.000000 153 155 142
-5.687500 -1.875000 -16.000000 152 154 141
-5.625000 -1.875000 -16.000000 150 151 145
-5.562500 -1.875000 -16.000000 148 149 143
-5.500000 -1.875000 -16.000000 147 147 147
-5.437500 -1.875000 -16.000000 146 146 146
-5.375000 -1.875000 -16.000000 145 141 142
-5.312500 -1.875000 -16.000000 141 137 138
-5.250000 -1.875000 -16.000000 145 145 145
-5.187500 -1.875000 -16.000000 143 143 143
-5.125000 -1.875000 -16.000000 142 142 142
-5.062500 -1.875000 -16.000000 143 143 143
-5.000000 -1.875000 -16.000000 142 143 139
-4.937500 -1.875000 -16.000000 138 139 135
-4.875000 -1.875000 -16.000000 135 135 135
-4.812500 -1.875000 -16.000000 134 134 134
-4.750000 -1.875000 -16.000000 135 134 131
-4.687500 -1.875000 -16.000000 135 134 131
-4.625000 -1.875000 -16.000000 133 133 133
-4.562500 -1.875000 -16.000000 130 130 130
-4.500000 -1.875000 -16.000000 130 129 136
-4.437500 -1.875000 -16.000000 129 128 135
-4.375000 -1.875000 -16.000000 129 126 136
-4.312500 -1.875000 -16.000000 125 122 132
-4.250000 -1.875000 -16.000000 123 122 129
-4.187500 -1.875000 -16.000000 123 122 129
-4.125000 -1.875000 -16.000000 119 122 123
-4.062500 -1.875000 -16.000000 119 122 123
-4.000000 -1.875000 -16.000000 111 116 128
-3.937500 -1.875000 -16.000000 109 114 126
-3.875000 -1.875000 -16.000000 110 119 120
-3.812500 -1.875000 -16.000000 110 119 120
-3.595506 -1.797753 -15.340824 113 114 125
-3.535581 -1.797753 -15.340824 111 112 123
-3.501887 -1.811321 -15.456604 110 112 127
-3.562500 -1.875000 -16.000000 111 113 128
-3.500000 -1.875000 -16.000000 108 113 127
-3.437500 -1.875000 -16.000000 106 111 125
-3.375000 -1.875000 -16.000000 106 109 119
-3.312500 -1.875000 -16.000000 104 107 117
-3.250000 -1.875000 -16.000000 99 109 119
-3.187500 -1.875000 -16.000000 98 108 118
-3.125000 -1.875000 -16.000000 102 105 115
-3.062500 -1.875000 -16.000000 102 105 115
-3.000000 -1.875000 -16.000000 98 105 118
-2.937500 -1.875000 -16.000000 95 102 115
-2.875000 -1.875000 -16.000000 89 104 110
-2.812500 -1.875000 -16.000000 87 102 108
-2.750000 -1.875000 -16.000000 86 103 108
-2.687500 -1.875000 -16.000000 87 104 109
-2.625000 -1.875000 -16.000000 93 97 116
-2.562500 -1.875000 -16.000000 93 97 116
-2.500000 -1.875000 -16.000000 93 92 115
-2.437500 -1.875000 -16.000000 93 92 115
-2.375000 -1.875000 -16.000000 89 94 117
-2.312500 -1.875000 -16.000000 89 94 117
-2.250000 -1.875000 -16.000000 87 95 117
-2.187500 -1.875000 -16.000000 85 93 115
-2.125000 -1.875000 -16.000000 87 92 117
-1.692833 -1.638225 -13.979522 116 105 122
-1.594684 -1.594684 -13.607973 123 115 114
-1.526316 -1.578947 -13.473684 105 97 96
-1.468852 -1.573771 -13.429508 93 83 86
-1.407166 -1.563518 -13.342019 85 75 78
-1.437500 -1.875000 -16.000000 91 77 78
-1.375000 -1.875000 -16.000000 97 80 80
-1.312500 -1.875000 -16.000000 98 81 81
-1.250000 -1.875000 -16.000000 96 83 87
-1.187500 -1.875000 -16.000000 98 85 89
-1.125000 -1.875000 -16.000000 100 89 80
1.269841 -0.476190 -4.063492 58 68 103
1.285714 -0.476190 -4.063492 59 69 104
1.301587 -0.476190 -4.063492 58 67 111
1.317460 -0.476190 -4.063492 58 67 111
1.333333 -0.476190 -4.063492 53 68 112
1.349206 -0.476190 -4.063492 52 67 111
1.365079 -0.476190 -4.063492 52 67 107
1.380952 -0.476190 -4.063492 54 69 109
1.396825 -0.476190 -4.063492 56 68 104
1.412698 -0.476190 -4.063492 55 67 103
1.428571 -0.476190 -4.063492 55 66 109
1.444444 -0.476190 -4.063492 55 66 109
1.460317 -0.476190 -4.063492 57 65 112
1.476190 -0.476190 -4.063492 57 65 112
1.492064 -0.476190 -4.063492 56 66 112
1.507936 -0.476190 -4.063492 57 67 113
1.523810 -0.476190 -4.063492 55 64 117
1.539683 -0.476190 -4.063492 55 64 117
1.555556 -0.476190 -4.063492 55 64 108
1.571429 -0.476190 -4.063492 55 64 108
1.587302 -0.476190 -4.063492 47 70 107
1.603175 -0.476190 -4.063492 45 68 105
1.619048 -0.476190 -4.063492 48 68 108
1.634921 -0.476190 -4.063492 49 69 109
1.650794 -0.476190 -4.063492 49 69 107
1.666667 -0.476190 -4.063492 48 68 106
1.682540 -0.476190 -4.063492 55 64 115
1.698413 -0.476190 -4.063492 57 66 117
1.714286 -0.476190 -4.063492 54 68 108
1.730159 -0.476190 -4.063492 53 67 107
1.746032 -0.476190 -4.063492 53 66 109
