ply
format ascii 1.0
element vertex 1249
property float x
property float y
property float z
property uchar red
property uchar green
property uchar blue
end_header
-1.000000 5.250000 -16.000000 67 88 64
-0.937500 5.250000 -16.000000 66 87 63
0.000000 5.250000 -16.000000 36 29 21
0.062500 5.250000 -16.000000 33 26 18
0.125000 5.250000 -16.000000 29 20 25
0.187500 5.250000 -16.000000 24 15 20
0.312500 5.250000 -16.000000 11 8 27
0.437500 5.250000 -16.000000 16 11 35
0.421053 4.421052 -13.473684 15 13 29
0.473684 4.421052 -13.473684 14 12 28
1.135061 1.833561 -5.587995 26 15 21
1.129803 1.395639 -4.253375 16 23 27
1.145228 1.394191 -4.248963 15 22 26
1.159420 1.391304 -4.240166 20 23 24
1.162743 1.375640 -4.192426 21 24 25
1.163636 1.357576 -4.137374 16 27 32
1.169169 1.345345 -4.100100 21 32 37
1.174603 1.333333 -4.063492 24 35 36
1.190476 1.333333 -4.063492 31 42 43
1.206349 1.333333 -4.063492 33 45 43
1.222222 1.333333 -4.063492 33 45 43
1.238095 1.333333 -4.063492 34 46 44
1.253968 1.333333 -4.063492 35 47 45
1.269841 1.333333 -4.063492 31 49 45
1.285714 1.333333 -4.063492 31 49 45
1.301587 1.333333 -4.063492 30 49 39
1.317460 1.333333 -4.063492 31 50 40
1.333333 1.333333 -4.063492 36 49 39
1.349206 1.333333 -4.063492 27 40 30
1.365079 1.333333 -4.063492 40 33 27
1.416073 1.367243 -4.166836 39 32 26
1.433809 1.368635 -4.171080 44 32 19
1.448627 1.367243 -4.166836 46 34 21
1.466395 1.368635 -4.171080 45 33 18
1.482688 1.368635 -4.171080 44 32 17
1.498982 1.368635 -4.171080 44 33 24
1.513734 1.367243 -4.166836 45 34 25
1.525355 1.363083 -4.154158 38 34 23
1.532258 1.354839 -4.129032 32 28 17
1.546828 1.353474 -4.124874 29 22 29
1.562941 1.353474 -4.124874 29 22 29
2.512820 2.153846 -6.564103 26 26 28
2.538461 2.153846 -6.564103 26 26 28
2.560000 2.150400 -6.553600 24 30 46
2.581470 2.146965 -6.543131 28 34 50
2.607029 2.146965 -6.543131 34 27 45
5.966997 4.435644 -13.518152 28 21 30
6.080000 4.480000 -13.653334 25 24 24
7.003559 4.782918 -14.576512 26 19 30
6.912892 4.682927 -14.271777 24 19 27
6.944445 4.666667 -14.222222 21 16 24
7.000000 4.666667 -14.222222 19 16 26
6.429906 4.186916 -12.760124 11 13 21
6.459627 4.173913 -12.720497 20 18 21
6.509317 4.173913 -12.720497 20 18 21
8.328767 4.602740 -14.027397 28 30 36
-5.937500 5.187500 -16.000000 104 128 87
-5.875000 5.187500 -16.000000 101 127 74
-5.812500 5.187500 -16.000000 94 120 67
-4.500000 5.187500 -16.000000 44 55 39
-4.437500 5.187500 -16.000000 44 55 39
-4.375000 5.187500 -16.000000 45 56 40
-4.312500 5.187500 -16.000000 44 55 39
-4.250000 5.187500 -16.000000 44 55 39
-4.187500 5.187500 -16.000000 45 56 40
-4.125000 5.187500 -16.000000 43 56 46
-4.062500 5.187500 -16.000000 42 55 45
-4.000000 5.187500 -16.000000 45 56 42
-3.937500 5.187500 -16.000000 45 56 42
-3.875000 5.187500 -16.000000 47 54 39
-3.812500 5.187500 -16.000000 47 54 39
-3.750000 5.187500 -16.000000 47 54 39
-3.687500 5.187500 -16.000000 47 54 39
-3.625000 5.187500 -16.000000 40 53 41
-3.562500 5.187500 -16.000000 39 52 40
-3.500000 5.187500 -16.000000 45 54 43
-3.437500 5.187500 -16.000000 45 54 43
-3.375000 5.187500 -16.000000 45 53 47
-3.312500 5.187500 -16.000000 45 53 47
-3.250000 5.187500 -16.000000 39 59 44
-3.187500 5.187500 -16.000000 65 85 70
-3.125000 5.187500 -16.000000 71 91 63
-3.062500 5.187500 -16.000000 72 92 64
-3.000000 5.187500 -16.000000 67 94 61
-2.937500 5.187500 -16.000000 69 96 63
-2.875000 5.187500 -16.000000 76 92 61
-2.812500 5.187500 -16.000000 73 89 58
-2.750000 5.187500 -16.000000 67 93 63
-2.687500 5.187500 -16.000000 68 94 64
-2.625000 5.187500 -16.000000 70 96 66
-2.562500 5.187500 -16.000000 69 95 65
-2.500000 5.187500 -16.000000 66 93 58
-2.437500 5.187500 -16.000000 67 94 59
-2.375000 5.187500 -16.000000 68 93 63
-2.312500 5.187500 -16.000000 69 94 64
-2.250000 5.187500 -16.000000 70 90 64
-2.187500 5.187500 -16.000000 70 90 64
-2.125000 5.187500 -16.000000 73 88 66
-2.062500 5.187500 -16.000000 73 88 66
-2.000000 5.187500 -16.000000 71 90 67
-1.937500 5.187500 -16.000000 70 89 66
-1.875000 5.187500 -16.000000 68 88 60
-1.625000 5.187500 -16.000000 67 92 60
-1.562500 5.187500 -16.000000 65 90 58
-1.500000 5.187500 -16.000000 67 89 60
-1.437500 5.187500 -16.000000 69 91 62
-1.375000 5.187500 -16.000000 66 93 56
-1.312500 5.187500 -16.000000 63 90 53
-1.250000 5.187500 -16.000000 64 90 53
-1.187500 5.187500 -16.000000 65 91 54
-1.125000 5.187500 -16.000000 70 87 62
-1.062500 5.187500 -16.000000 71 88 63
-1.000000 5.187500 -16.000000 69 90 68
0.062500 5.187500 -16.000000 34 28 15
0.125000 5.187500 -16.000000 27 20 27
0.187500 5.187500 -16.000000 22 15 22
0.375000 5.187500 -16.000000 15 5 31
0.370861 4.397351 -13.562914 18 8 34
0.421053 4.368421 -13.473684 18 10 28
0.473684 4.368421 -13.473684 18 10 28
1.128631 1.377593 -4.248963 14 20 27
1.145228 1.377593 -4.248963 14 20 27
1.160622 1.376166 -4.244560 18 22 27
1.175983 1.374741 -4.240166 20 24 29
1.161290 1.338710 -4.129032 17 28 31
1.158730 1.317460 -4.063492 21 32 35
1.174603 1.317460 -4.063492 21 38 32
1.190476 1.317460 -4.063492 28 45 39
1.206349 1.317460 -4.063492 33 42 41
1.222222 1.317460 -4.063492 34 43 42
1.238095 1.317460 -4.063492 29 45 44
1.253968 1.317460 -4.063492 30 46 45
1.269841 1.317460 -4.063492 29 47 41
1.285714 1.317460 -4.063492 27 45 39
1.301587 1.317460 -4.063492 31 42 43
1.317460 1.317460 -4.063492 30 41 42
1.333333 1.317460 -4.063492 27 36 35
1.349206 1.317460 -4.063492 27 36 35
1.365079 1.317460 -4.063492 42 31 22
1.408907 1.344130 -4.145749 41 30 21
1.432350 1.350966 -4.166836 47 33 16
1.448627 1.350966 -4.166836 47 33 16
1.466395 1.352342 -4.171080 44 33 15
1.482688 1.352342 -4.171080 44 33 15
1.498982 1.352342 -4.171080 42 36 23
1.509128 1.346856 -4.154158 43 37 24
1.523810 1.345491 -4.149950 41 37 26
1.532258 1.338710 -4.129032 32 28 17
1.542169 1.333333 -4.112450 29 25 28
1.559799 1.334673 -4.116583 27 23 26
2.512820 2.128205 -6.564103 24 29 29
2.538461 2.128205 -6.564103 21 26 26
2.560000 2.124800 -6.553600 23 35 42
2.577353 2.118022 -6.532695 24 36 43
2.602871 2.118022 -6.532695 36 30 45
5.156627 4.000000 -12.337349 24 22 27
5.220544 4.012084 -12.374622 21 20 27
5.837133 4.325733 -13.342019 27 23 26
5.889251 4.325733 -13.342019 27 23 26
6.542955 4.563574 -14.075602 25 22 32
7.229630 4.918519 -15.170370 25 20 28
6.929577 4.676056 -14.422535 24 19 27
6.912892 4.627178 -14.271777 22 20 27
6.944445 4.611111 -14.222222 20 18 25
7.000000 4.611111 -14.222222 21 15 26
6.479751 4.137072 -12.760124 24 19 27
8.302405 4.563574 -14.075602 27 28 39
8.328767 4.547945 -14.027397 28 30 34
8.383562 4.547945 -14.027397 28 30 34
-5.937500 5.125000 -16.000000 102 128 89
-5.875000 5.125000 -16.000000 96 123 79
-5.812500 5.125000 -16.000000 91 118 74
-4.500000 5.125000 -16.000000 45 54 41
-4.437500 5.125000 -16.000000 45 54 41
-4.375000 5.125000 -16.000000 44 55 41
-4.312500 5.125000 -16.000000 44 55 41
-4.250000 5.125000 -16.000000 42 56 37
-4.187500 5.125000 -16.000000 43 57 38
-4.125000 5.125000 -16.000000 43 56 44
-4.062500 5.125000 -16.000000 43 56 44
-4.000000 5.125000 -16.000000 42 56 41
-3.937500 5.125000 -16.000000 42 56 41
-3.875000 5.125000 -16.000000 45 55 39
-3.812500 5.125000 -16.000000 44 54 38
-3.750000 5.125000 -16.000000 44 55 39
-3.687500 5.125000 -16.000000 45 56 40
-3.625000 5.125000 -16.000000 41 55 40
-3.562500 5.125000 -16.000000 42 56 41
-3.500000 5.125000 -16.000000 45 53 45
-3.437500 5.125000 -16.000000 43 51 43
-3.375000 5.125000 -16.000000 43 53 46
-3.312500 5.125000 -16.000000 44 54 47
-3.250000 5.125000 -16.000000 35 55 38
-3.187500 5.125000 -16.000000 62 82 65
-3.125000 5.125000 -16.000000 71 93 64
-3.062500 5.125000 -16.000000 70 92 63
-3.000000 5.125000 -16.000000 70 95 63
-2.937500 5.125000 -16.000000 70 95 63
-2.875000 5.125000 -16.000000 72 93 60
-2.812500 5.125000 -16.000000 72 93 60
-2.750000 5.125000 -16.000000 68 93 59
-2.687500 5.125000 -16.000000 69 94 60
-2.625000 5.125000 -16.000000 69 93 66
-2.562500 5.125000 -16.000000 69 93 66
-2.500000 5.125000 -16.000000 72 92 62
-2.437500 5.125000 -16.000000 71 91 61
-2.375000 5.125000 -16.000000 70 91 69
-2.312500 5.125000 -16.000000 71 92 70
-2.250000 5.125000 -16.000000 68 92 67
-2.187500 5.125000 -16.000000 67 91 66
-2.125000 5.125000 -16.000000 72 88 70
-2.062500 5.125000 -16.000000 72 88 70
-2.000000 5.125000 -16.000000 71 91 65
-1.937500 5.125000 -16.000000 69 89 63
-1.875000 5.125000 -16.000000 66 87 61
-1.812500 5.125000 -16.000000 68 89 63
-1.555556 4.555555 -14.222222 68 89 67
-1.484536 4.508591 -14.075602 66 87 65
-1.429553 4.508591 -14.075602 65 90 60
-1.379310 4.524138 -14.124138 65 90 60
-1.375000 5.125000 -16.000000 69 91 60
-1.312500 5.125000 -16.000000 68 90 59
-1.250000 5.125000 -16.000000 67 89 58
-1.187500 5.125000 -16.000000 67 89 58
-1.125000 5.125000 -16.000000 71 88 63
-1.062500 5.125000 -16.000000 71 88 63
-0.687500 5.125000 -16.000000 65 87 56
-0.625000 5.125000 -16.000000 77 81 49
-0.562500 5.125000 -16.000000 80 84 52
0.062500 5.125000 -16.000000 39 29 13
0.125000 5.125000 -16.000000 30 21 24
0.187500 5.125000 -16.000000 28 19 22
0.312500 5.125000 -16.000000 18 7 26
0.375000 5.125000 -16.000000 18 6 30
0.437500 5.125000 -16.000000 20 8 32
0.422442 4.330033 -13.518152 22 9 27
1.128631 1.360996 -4.248963 17 18 31
1.144041 1.359586 -4.244560 16 17 30
1.160622 1.359586 -4.244560 16 21 33
1.177202 1.359586 -4.244560 18 23 35
1.158954 1.319919 -4.120724 17 28 31
1.158730 1.301587 -4.063492 21 32 35
1.174603 1.301587 -4.063492 21 37 34
1.190476 1.301587 -4.063492 27 43 40
1.206349 1.301587 -4.063492 26 40 37
1.222222 1.301587 -4.063492 29 43 40
1.238095 1.301587 -4.063492 28 45 39
1.253968 1.301587 -4.063492 30 47 41
1.269841 1.301587 -4.063492 32 45 45
1.285714 1.301587 -4.063492 30 43 43
1.301587 1.301587 -4.063492 31 42 45
1.317460 1.301587 -4.063492 31 42 45
1.333333 1.301587 -4.063492 27 33 40
1.349206 1.301587 -4.063492 25 31 38
1.365079 1.301587 -4.063492 40 26 27
1.408907 1.327935 -4.145749 42 28 29
1.427992 1.330629 -4.154158 44 34 18
1.444219 1.330629 -4.154158 43 33 17
1.458967 1.329281 -4.149950 40 33 23
1.476673 1.330629 -4.154158 40 33 23
1.494416 1.331980 -4.158376 40 32 20
1.509128 1.330629 -4.154158 42 34 22
1.519192 1.325253 -4.137374 39 37 25
1.527638 1.318593 -4.116583 32 30 18
1.539078 1.314629 -4.104208 29 25 26
1.555110 1.314629 -4.104208 27 23 24
2.512820 2.102564 -6.564103 20 29 28
2.538461 2.102564 -6.564103 19 28 27
2.555911 2.095847 -6.543131 22 37 43
2.577353 2.092504 -6.532695 23 38 44
2.602871 2.092504 -6.532695 38 32 45
5.093093 3.939940 -12.300301 30 21 24
5.141141 3.939940 -12.300301 28 19 22
5.204819 3.951807 -12.337349 20 15 23
5.284849 3.975758 -12.412121 23 18 26
5.482866 4.087227 -12.760124 27 25 30
5.550000 4.100000 -12.800000 27 25 30
5.600000 4.100000 -12.800000 31 22 25
5.757962 4.178344 -13.044586 32 23 26
5.941368 4.273616 -13.342019 24 25 21
6.052631 4.315790 -13.473684 22 23 19
6.105263 4.315790 -13.473684 24 20 23
6.324324 4.432433 -13.837838 23 19 22
6.465754 4.493151 -14.027397 26 19 30
6.520548 4.493151 -14.027397 26 19 30
6.597938 4.508591 -14.075602 29 17 30
6.905263 4.603509 -14.371930 27 17 31
6.888889 4.555555 -14.222222 25 20 28
6.944445 4.555555 -14.222222 24 19 27
7.000000 4.555555 -14.222222 21 21 23
9.250000 5.125000 -16.000000 22 29 31
9.312500 5.125000 -16.000000 23 30 32
8.759124 4.788321 -14.948905 23 30 34
8.388889 4.555555 -14.222222 23 30 34
8.357388 4.508591 -14.075602 24 31 35
8.412371 4.508591 -14.075602 25 32 36
8.555555 4.555555 -14.222222 25 33 37
8.732394 4.619718 -14.422535 26 34 38
8.788733 4.619718 -14.422535 26 34 38
8.692041 4.539793 -14.173011 22 30 34
-5.937500 5.062500 -16.000000 101 129 87
-5.875000 5.062500 -16.000000 103 127 82
-5.812500 5.062500 -16.000000 93 117 72
-4.500000 5.062500 -16.000000 41 54 44
-4.437500 5.062500 -16.000000 42 55 45
-4.375000 5.062500 -16.000000 44 55 41
-4.312500 5.062500 -16.000000 45 56 42
-4.250000 5.062500 -16.000000 42 56 39
-4.187500 5.062500 -16.000000 42 56 39
-4.125000 5.062500 -16.000000 44 54 45
-4.000000 5.062500 -16.000000 45 56 44
-3.937500 5.062500 -16.000000 45 56 44
-3.875000 5.062500 -16.000000 46 55 44
-3.812500 5.062500 -16.000000 45 54 43
-3.750000 5.062500 -16.000000 42 56 41
-3.687500 5.062500 -16.000000 43 57 42
-3.625000 5.062500 -16.000000 43 56 44
-3.562500 5.062500 -16.000000 42 55 43
-3.500000 5.062500 -16.000000 48 54 46
-3.437500 5.062500 -16.000000 48 54 46
-3.375000 5.062500 -16.000000 44 54 47
-3.312500 5.062500 -16.000000 45 55 48
-3.250000 5.062500 -16.000000 33 57 43
-3.187500 5.062500 -16.000000 57 81 67
-3.125000 5.062500 -16.000000 69 95 67
-3.062500 5.062500 -16.000000 67 93 65
-3.000000 5.062500 -16.000000 71 92 70
-2.937500 5.062500 -16.000000 73 94 72
-2.875000 5.062500 -16.000000 73 92 69
-2.812500 5.062500 -16.000000 72 91 68
-2.750000 5.062500 -16.000000 70 95 65
-2.687500 5.062500 -16.000000 69 94 64
-2.625000 5.062500 -16.000000 68 93 63
-2.562500 5.062500 -16.000000 69 94 64
-2.500000 5.062500 -16.000000 72 93 58
-2.437500 5.062500 -16.000000 71 92 57
-2.375000 5.062500 -16.000000 71 91 65
-2.312500 5.062500 -16.000000 72 92 66
-2.250000 5.062500 -16.000000 70 91 67
-2.187500 5.062500 -16.000000 70 91 67
-2.125000 5.062500 -16.000000 69 87 71
-2.062500 5.062500 -16.000000 69 87 71
-2.000000 5.062500 -16.000000 72 89 64
-1.937500 5.062500 -16.000000 72 89 64
-1.875000 5.062500 -16.000000 67 88 62
-1.611111 4.500000 -14.222222 68 89 63
-1.539519 4.453608 -14.075602 67 88 66
-1.479452 4.438356 -14.027397 68 89 67
-1.424658 4.438356 -14.027397 64 88 61
-1.379310 4.468966 -14.124138 64 88 61
-1.324138 4.468966 -14.124138 68 88 60
-1.312500 5.062500 -16.000000 69 89 63
-1.250000 5.062500 -16.000000 66 87 63
-1.187500 5.062500 -16.000000 67 88 64
-0.750000 5.062500 -16.000000 71 83 60
-0.687500 5.062500 -16.000000 71 83 60
-0.625000 5.062500 -16.000000 77 77 53
-0.562500 5.062500 -16.000000 79 79 55
0.062500 5.062500 -16.000000 37 29 15
0.125000 5.062500 -16.000000 30 22 21
0.187500 5.062500 -16.000000 28 20 19
0.250000 5.062500 -16.000000 19 11 29
0.312500 5.062500 -16.000000 15 7 25
0.375000 5.062500 -16.000000 20 9 26
0.437500 5.062500 -16.000000 22 11 28
1.144041 1.343005 -4.244560 17 18 31
1.160622 1.343005 -4.244560 18 21 33
1.177202 1.343005 -4.244560 22 25 37
1.156626 1.301205 -4.112450 23 26 34
1.158730 1.285714 -4.063492 25 28 36
1.174603 1.285714 -4.063492 20 36 37
1.190476 1.285714 -4.063492 30 46 47
1.206349 1.285714 -4.063492 33 52 40
1.222222 1.285714 -4.063492 43 62 50
1.238095 1.285714 -4.063492 42 61 42
1.253968 1.285714 -4.063492 40 59 40
1.269841 1.285714 -4.063492 41 54 44
1.285714 1.285714 -4.063492 39 52 42
1.301587 1.285714 -4.063492 34 47 47
1.317460 1.285714 -4.063492 32 45 45
1.333333 1.285714 -4.063492 37 46 47
1.349206 1.285714 -4.063492 35 44 45
1.365079 1.285714 -4.063492 43 29 40
1.411765 1.314402 -4.154158 41 27 38
1.427992 1.314402 -4.154158 42 29 19
1.444219 1.314402 -4.154158 46 33 23
1.458967 1.313070 -4.149950 43 35 25
1.476673 1.314402 -4.154158 41 33 23
1.494416 1.315736 -4.158376 39 31 19
1.507599 1.313070 -4.149950 40 32 20
1.516129 1.306452 -4.129032 40 33 25
1.524574 1.299900 -4.108325 37 30 22
1.536000 1.296000 -4.096000 29 23 27
1.552000 1.296000 -4.096000 29 23 27
2.504792 2.070287 -6.543131 21 28 32
2.538461 2.076923 -6.564103 22 29 33
2.555911 2.070287 -6.543131 23 33 41
2.581470 2.070287 -6.543131 28 38 46
5.045045 3.891892 -12.300301 31 21 24
5.093093 3.891892 -12.300301 28 20 17
5.156627 3.903615 -12.337349 29 21 18
5.220544 3.915408 -12.374622 22 22 24
5.284849 3.927273 -12.412121 23 23 25
5.415385 3.987692 -12.603077 26 24 27
5.550000 4.050000 -12.800000 27 25 28
5.600000 4.050000 -12.800000 31 22 27
5.757962 4.127388 -13.044586 30 21 26
5.864952 4.167202 -13.170418 24 23 23
6.032787 4.249180 -13.429508 21 20 20
6.065360 4.235294 -13.385621 21 19 26
6.157895 4.263158 -13.473684 22 20 27
6.400000 4.393220 -13.884746 25 20 26
6.542955 4.453608 -14.075602 27 22 28
6.643599 4.484429 -14.173011 28 18 30
6.905263 4.547369 -14.371930 24 17 24
6.888889 4.500000 -14.222222 21 20 29
6.944445 4.500000 -14.222222 21 20 29
6.951724 4.468966 -14.124138 20 20 22
6.958904 4.438356 -14.027397 20 20 22
7.178082 4.438356 -14.027397 19 20 31
7.282759 4.468966 -14.124138 19 17 33
9.250000 5.062500 -16.000000 24 29 29
9.312500 5.062500 -16.000000 25 30 30
8.823529 4.764706 -15.058824 24 30 37
8.388889 4.500000 -14.222222 23 29 36
8.444445 4.500000 -14.222222 24 30 37
8.500000 4.500000 -14.222222 25 31 38
8.676056 4.563380 -14.422535 28 33 33
8.701755 4.547369 -14.371930 28 33 33
8.666667 4.500000 -14.222222 30 32 36
8.722222 4.500000 -14.222222 28 30 34
8.777778 4.500000 -14.222222 23 32 33
-5.937500 5.000000 -16.000000 100 131 88
-5.875000 5.000000 -16.000000 104 124 80
-5.812500 5.000000 -16.000000 94 114 70
-4.500000 5.000000 -16.000000 41 54 42
-4.437500 5.000000 -16.000000 42 55 43
-4.375000 5.000000 -16.000000 44 55 41
-4.312500 5.000000 -16.000000 44 55 41
-4.250000 5.000000 -16.000000 43 54 38
-4.187500 5.000000 -16.000000 45 56 40
-4.000000 5.000000 -16.000000 44 54 47
-3.937500 5.000000 -16.000000 43 53 46
-3.875000 5.000000 -16.000000 45 55 46
-3.812500 5.000000 -16.000000 46 56 47
-3.750000 5.000000 -16.000000 42 56 39
-3.687500 5.000000 -16.000000 43 57 40
-3.625000 5.000000 -16.000000 43 57 42
-3.562500 5.000000 -16.000000 42 56 41
-3.500000 5.000000 -16.000000 44 54 47
-3.437500 5.000000 -16.000000 43 53 46
-3.375000 5.000000 -16.000000 44 54 45
-3.312500 5.000000 -16.000000 46 56 47
-3.116105 4.794007 -15.340824 35 59 43
-3.056180 4.794007 -15.340824 54 78 62
-3.125000 5.000000 -16.000000 70 97 64
-3.062500 5.000000 -16.000000 67 94 61
-3.000000 5.000000 -16.000000 68 92 67
-2.937500 5.000000 -16.000000 69 93 68
-2.875000 5.000000 -16.000000 74 90 70
-2.812500 5.000000 -16.000000 74 90 70
-2.750000 5.000000 -16.000000 71 93 64
-2.687500 5.000000 -16.000000 72 94 65
-2.625000 5.000000 -16.000000 68 95 60
-2.562500 5.000000 -16.000000 68 95 60
-2.500000 5.000000 -16.000000 70 93 57
-2.437500 5.000000 -16.000000 69 92 56
-2.375000 5.000000 -16.000000 70 92 63
-2.312500 5.000000 -16.000000 69 91 62
-2.250000 5.000000 -16.000000 72 92 66
-2.187500 5.000000 -16.000000 72 92 66
-2.125000 5.000000 -16.000000 68 89 67
-2.062500 5.000000 -16.000000 67 88 66
-2.000000 5.000000 -16.000000 69 89 63
-1.937500 5.000000 -16.000000 69 89 63
-1.764706 4.705883 -15.058824 65 89 64
-1.594502 4.398625 -14.075602 65 89 64
-1.518644 4.338983 -13.884746 67 88 66
-1.474403 4.368601 -13.979522 68 89 67
-1.419795 4.368601 -13.979522 71 88 63
-1.374570 4.398625 -14.075602 71 88 63
-1.324138 4.413793 -14.124138 69 89 59
-1.273356 4.429066 -14.173011 69 89 59
-0.812500 5.000000 -16.000000 68 85 58
-0.750000 5.000000 -16.000000 63 84 62
-0.687500 5.000000 -16.000000 64 85 63
-0.625000 5.000000 -16.000000 78 81 54
-0.562500 5.000000 -16.000000 79 82 55
0.062500 5.000000 -16.000000 35 27 15
0.125000 5.000000 -16.000000 30 22 21
0.187500 5.000000 -16.000000 25 17 16
0.250000 5.000000 -16.000000 17 10 28
0.312500 5.000000 -16.000000 14 7 25
0.375000 5.000000 -16.000000 22 8 19
1.177202 1.326425 -4.244560 18 23 37
1.155466 1.283852 -4.108325 19 27 33
1.158730 1.269841 -4.063492 21 29 35
1.174603 1.269841 -4.063492 25 36 39
1.190476 1.269841 -4.063492 34 45 48
1.206349 1.269841 -4.063492 36 51 40
1.222222 1.269841 -4.063492 38 53 42
1.238095 1.269841 -4.063492 38 58 43
1.253968 1.269841 -4.063492 37 57 42
1.269841 1.269841 -4.063492 39 57 41
1.285714 1.269841 -4.063492 36 54 38
1.301587 1.269841 -4.063492 37 52 41
1.329329 1.281281 -4.100100 39 54 43
1.345345 1.281281 -4.100100 43 53 46
1.365462 1.285141 -4.112450 43 53 46
1.404082 1.306122 -4.179592 50 37 43
1.418960 1.304791 -4.175331 41 28 34
1.430894 1.300813 -4.162601 44 29 19
1.447155 1.300813 -4.162601 49 34 24
1.463415 1.300813 -4.162601 48 33 21
1.516129 1.290323 -4.129032 39 31 28
1.521522 1.281281 -4.100100 36 28 25
1.523810 1.269841 -4.063492 27 25 28
1.539683 1.269841 -4.063492 26 24 27
2.496815 2.038217 -6.522293 20 27 31
2.530351 2.044729 -6.543131 21 28 32
2.555911 2.044729 -6.543131 23 33 43
5.139394 3.878788 -12.412121 25 21 19
5.187879 3.878788 -12.412121 26 22 20
5.236363 3.878788 -12.412121 23 23 25
5.333333 3.914373 -12.525994 23 23 25
5.415385 3.938462 -12.603077 23 25 29
5.550000 4.000000 -12.800000 24 26 30
5.600000 4.000000 -12.800000 32 23 28
5.739683 4.063492 -13.003175 29 20 25
5.808917 4.076433 -13.044586 25 19 21
5.954692 4.142395 -13.255664 25 19 21
6.085246 4.196721 -13.429508 25 20 28
6.157895 4.210526 -13.473684 25 20 28
6.421769 4.353742 -13.931973 24 22 25
6.588235 4.429066 -14.173011 25 23 26
6.643599 4.429066 -14.173011 26 21 29
6.905263 4.491228 -14.371930 23 19 22
6.888889 4.444445 -14.222222 20 19 28
6.896552 4.413793 -14.124138 21 20 29
6.904109 4.383562 -14.027397 18 21 22
6.706271 4.224422 -13.518152 18 21 22
6.759076 4.224422 -13.518152 16 18 24
6.903010 4.280936 -13.698997 18 20 26
7.074830 4.353742 -13.931973 21 19 26
7.153584 4.368601 -13.979522 22 20 27
7.208191 4.368601 -13.979522 23 17 30
7.337931 4.413793 -14.124138 24 18 31
9.250000 5.000000 -16.000000 24 27 35
9.312500 5.000000 -16.000000 25 28 36
9.375000 5.000000 -16.000000 26 28 36
9.437500 5.000000 -16.000000 27 29 37
9.500000 5.000000 -16.000000 25 32 34
8.794326 4.539007 -14.524822 28 30 34
8.757895 4.491228 -14.371930 29 31 37
8.722222 4.444445 -14.222222 29 31 37
8.777778 4.444445 -14.222222 28 32 35
8.864112 4.459930 -14.271777 29 33 36
-5.937500 4.937500 -16.000000 100 133 85
-5.875000 4.937500 -16.000000 103 122 76
-5.812500 4.937500 -16.000000 94 113 67
-4.500000 4.937500 -16.000000 44 55 43
-4.437500 4.937500 -16.000000 44 55 43
-4.375000 4.937500 -16.000000 45 56 42
-4.312500 4.937500 -16.000000 44 55 41
-4.250000 4.937500 -16.000000 45 56 42
-4.187500 4.937500 -16.000000 45 56 42
-4.125000 4.937500 -16.000000 42 55 43
-4.062500 4.937500 -16.000000 42 55 43
-4.000000 4.937500 -16.000000 47 52 47
-3.937500 4.937500 -16.000000 47 52 47
-3.875000 4.937500 -16.000000 45 54 43
-3.812500 4.937500 -16.000000 45 54 43
-3.750000 4.937500 -16.000000 42 58 40
-3.687500 4.937500 -16.000000 39 55 37
-3.375000 4.937500 -16.000000 44 55 43
-3.312500 4.937500 -16.000000 46 57 45
-3.116105 4.734082 -15.340824 40 58 44
-3.056180 4.734082 -15.340824 56 74 60
-3.125000 4.937500 -16.000000 73 95 64
-3.062500 4.937500 -16.000000 72 94 63
-2.812500 4.937500 -16.000000 71 90 69
-2.750000 4.937500 -16.000000 73 90 65
-2.687500 4.937500 -16.000000 74 91 66
-2.625000 4.937500 -16.000000 72 92 62
-2.562500 4.937500 -16.000000 71 91 61
-2.500000 4.937500 -16.000000 71 92 59
-2.437500 4.937500 -16.000000 71 92 59
-2.375000 4.937500 -16.000000 68 91 71
-2.312500 4.937500 -16.000000 66 89 69
-2.250000 4.937500 -16.000000 69 93 66
-2.187500 4.937500 -16.000000 68 92 65
-2.125000 4.937500 -16.000000 69 90 66
-2.062500 4.937500 -16.000000 68 89 65
-2.000000 4.937500 -16.000000 70 90 62
-1.937500 4.937500 -16.000000 70 90 62
-1.594502 4.343643 -14.075602 68 90 61
-1.518644 4.284746 -13.884746 68 87 64
-1.469388 4.299320 -13.931973 68 87 64
-1.424658 4.328767 -14.027397 68 89 67
-1.379310 4.358621 -14.124138 68 89 67
-1.328720 4.373703 -14.173011 69 89 63
-1.282230 4.404181 -14.271777 67 87 61
-0.812500 4.937500 -16.000000 65 85 55
-0.750000 4.937500 -16.000000 66 87 61
-0.687500 4.937500 -16.000000 66 87 61
-0.625000 4.937500 -16.000000 78 78 54
-0.562500 4.937500 -16.000000 79 79 55
0.062500 4.937500 -16.000000 36 28 16
0.125000 4.937500 -16.000000 31 23 20
0.187500 4.937500 -16.000000 24 16 13
0.250000 4.937500 -16.000000 19 11 27
0.312500 4.937500 -16.000000 16 8 24
0.375000 4.937500 -16.000000 24 10 19
1.142857 1.253968 -4.063492 16 24 30
1.158730 1.253968 -4.063492 19 27 33
1.174603 1.253968 -4.063492 32 41 40
1.190476 1.253968 -4.063492 35 44 43
1.206349 1.253968 -4.063492 36 45 42
1.222222 1.253968 -4.063492 34 43 40
1.238095 1.253968 -4.063492 32 43 44
1.253968 1.253968 -4.063492 33 44 45
1.269841 1.253968 -4.063492 32 49 38
1.285714 1.253968 -4.063492 32 49 38
1.301587 1.253968 -4.063492 34 48 43
1.329329 1.265265 -4.100100 31 45 40
1.350754 1.270352 -4.116583 37 39 43
1.421859 1.291113 -4.183861 41 27 38
1.435270 1.288481 -4.175331 46 31 19
1.451580 1.288481 -4.175331 48 33 21
2.353678 1.978091 -6.410016 39 34 32
1.532258 1.274194 -4.129032 32 27 25
1.523810 1.253968 -4.063492 27 27 27
2.496815 2.012739 -6.522293 19 27 33
2.522293 2.012739 -6.522293 18 26 32
2.547771 2.012739 -6.522293 19 33 44
5.186544 3.865443 -12.525994 23 22 22
5.219512 3.853658 -12.487804 23 22 22
5.284404 3.865443 -12.525994 22 22 24
5.349693 3.877301 -12.564417 22 22 24
5.500000 3.950000 -12.800000 27 25 30
5.550000 3.950000 -12.800000 26 24 29
5.617555 3.962383 -12.840125 28 21 28
5.739683 4.012699 -13.003175 27 20 27
5.808917 4.025478 -13.044586 25 21 24
5.954692 4.090615 -13.255664 25 21 24
6.085246 4.144262 -13.429508 25 20 28
6.157895 4.157895 -13.473684 25 20 28
6.443686 4.313993 -13.979522 30 21 24
6.588235 4.373703 -14.173011 31 22 25
6.643599 4.373703 -14.173011 29 23 25
6.954063 4.466431 -14.473498 23 19 22
6.865052 4.373703 -14.173011 21 20 29
6.849315 4.328767 -14.027397 21 20 29
6.697674 4.199336 -13.607973 20 20 24
6.706271 4.171617 -13.518152 19 19 23
6.759076 4.171617 -13.518152 18 17 26
6.903010 4.227425 -13.698997 20 19 28
7.050848 4.284746 -13.884746 26 20 22
7.129251 4.299320 -13.931973 26 20 22
7.208191 4.313993 -13.979522 24 17 28
7.337931 4.358621 -14.124138 25 18 29
9.250000 4.937500 -16.000000 26 29 39
9.312500 4.937500 -16.000000 26 29 39
9.375000 4.937500 -16.000000 25 29 32
9.437500 4.937500 -16.000000 25 29 32
8.851064 4.482269 -14.524822 28 31 39
8.814035 4.435088 -14.371930 29 32 40
8.839161 4.419580 -14.321678 26 32 39
8.895105 4.419580 -14.321678 26 32 39
-5.937500 4.875000 -16.000000 99 129 77
-5.875000 4.875000 -16.000000 100 120 67
-5.812500 4.875000 -16.000000 96 116 63
-4.500000 4.875000 -16.000000 45 54 43
-4.437500 4.875000 -16.000000 46 55 44
-4.375000 4.875000 -16.000000 46 56 40
-4.312500 4.875000 -16.000000 46 56 40
-4.250000 4.875000 -16.000000 44 55 41
-4.187500 4.875000 -16.000000 44 55 41
-4.125000 4.875000 -16.000000 42 56 41
-4.062500 4.875000 -16.000000 43 57 42
-4.000000 4.875000 -16.000000 44 53 40
-3.937500 4.875000 -16.000000 45 54 41
-3.875000 4.875000 -16.000000 47 54 39
-3.812500 4.875000 -16.000000 47 54 39
-3.750000 4.875000 -16.000000 45 56 42
-3.687500 4.875000 -16.000000 43 54 40
-3.625000 4.875000 -16.000000 44 52 44
-3.562500 4.875000 -16.000000 45 53 45
-3.500000 4.875000 -16.000000 46 52 42
-3.437500 4.875000 -16.000000 47 53 43
-3.375000 4.875000 -16.000000 44 55 41
-3.312500 4.875000 -16.000000 45 56 42
-3.250000 4.875000 -16.000000 42 58 40
-3.187500 4.875000 -16.000000 60 76 58
-3.125000 4.875000 -16.000000 74 91 64
-3.062500 4.875000 -16.000000 73 90 63
-3.000000 4.875000 -16.000000 73 93 63
-2.827068 4.691730 -15.398497 73 93 63
-2.766917 4.691730 -15.398497 74 93 70
-2.812500 4.875000 -16.000000 70 89 66
-2.750000 4.875000 -16.000000 71 90 69
-2.687500 4.875000 -16.000000 70 89 68
-2.625000 4.875000 -16.000000 72 89 62
-2.562500 4.875000 -16.000000 72 89 62
-2.500000 4.875000 -16.000000 69 93 52
-2.437500 4.875000 -16.000000 69 93 52
-2.375000 4.875000 -16.000000 67 90 56
-2.312500 4.875000 -16.000000 68 91 57
-2.250000 4.875000 -16.000000 69 91 60
-2.187500 4.875000 -16.000000 69 91 60
-2.125000 4.875000 -16.000000 71 88 63
-2.062500 4.875000 -16.000000 70 87 62
-2.000000 4.875000 -16.000000 72 88 61
-1.937500 4.875000 -16.000000 73 89 62
-1.875000 4.875000 -16.000000 67 92 62
-1.812500 4.875000 -16.000000 65 90 60
-1.534247 4.273973 -14.027397 66 88 59
-1.479452 4.273973 -14.027397 65 87 58
-1.625000 4.875000 -16.000000 64 88 63
-1.562500 4.875000 -16.000000 67 91 66
-1.500000 4.875000 -16.000000 70 89 66
-1.437500 4.875000 -16.000000 67 86 63
-1.375000 4.875000 -16.000000 71 89 57
-1.312500 4.875000 -16.000000 69 87 55
-1.250000 4.875000 -16.000000 67 88 55
-1.187500 4.875000 -16.000000 68 89 56
-1.125000 4.875000 -16.000000 67 89 60
-1.062500 4.875000 -16.000000 67 89 60
-1.000000 4.875000 -16.000000 64 85 61
-0.937500 4.875000 -16.000000 64 85 61
-0.875000 4.875000 -16.000000 64 86 57
-0.812500 4.875000 -16.000000 64 86 57
-0.750000 4.875000 -16.000000 65 86 60
-0.687500 4.875000 -16.000000 65 86 60
-0.625000 4.875000 -16.000000 79 79 55
-0.562500 4.875000 -16.000000 80 80 56
0.000000 4.875000 -16.000000 40 26 25
0.062500 4.875000 -16.000000 38 24 23
0.125000 4.875000 -16.000000 30 22 21
0.187500 4.875000 -16.000000 26 18 17
0.250000 4.875000 -16.000000 23 11 26
0.312500 4.875000 -16.000000 20 8 23
0.375000 4.875000 -16.000000 18 5 23
1.142857 1.238095 -4.063492 12 22 30
1.158730 1.238095 -4.063492 16 26 34
1.174603 1.238095 -4.063492 29 42 42
1.190476 1.238095 -4.063492 31 44 44
1.206349 1.238095 -4.063492 31 45 40
1.222222 1.238095 -4.063492 30 44 39
1.238095 1.238095 -4.063492 34 43 44
1.253968 1.238095 -4.063492 36 45 46
1.280000 1.248000 -4.096000 34 48 40
1.285714 1.238095 -4.063492 33 47 39
1.313313 1.249249 -4.100100 28 46 44
1.334673 1.254271 -4.116583 26 44 42
1.357576 1.260606 -4.137374 37 41 44
1.423313 1.276074 -4.188139 38 29 36
1.438202 1.274770 -4.183861 43 30 22
1.456033 1.276074 -4.188139 44 31 23
2.357367 1.956113 -6.420063 38 34 32
2.378717 1.953052 -6.410016 32 28 26
2.403756 1.953052 -6.410016 28 27 27
2.471338 1.987261 -6.522293 27 26 26
2.496815 1.987261 -6.522293 20 27 31
2.518283 1.984102 -6.511924 20 27 31
2.543720 1.984102 -6.511924 19 33 44
5.153374 3.828221 -12.564417 28 24 25
5.202454 3.828221 -12.564417 25 21 22
5.235474 3.816514 -12.525994 24 20 21
5.300613 3.828221 -12.564417 19 23 26
5.382716 3.851852 -12.641975 20 24 27
5.500000 3.900000 -12.800000 25 24 31
5.567398 3.912226 -12.840125 25 24 31
5.635220 3.924528 -12.880503 29 23 34
5.739683 3.961905 -13.003175 28 22 33
5.827476 3.987221 -13.086262 28 23 31
5.954692 4.038835 -13.255664 26 21 29
6.085246 4.091803 -13.429508 24 18 29
6.157895 4.105263 -13.473684 24 18 29
6.443686 4.259386 -13.979522 29 20 27
6.588235 4.318339 -14.173011 31 22 29
6.666667 4.333333 -14.222222 27 23 24
7.143911 4.605166 -15.114391 26 22 23
7.202952 4.605166 -15.114391 25 18 27
6.954063 4.409894 -14.473498 25 18 27
6.865052 4.318339 -14.173011 22 21 28
6.849315 4.273973 -14.027397 21 20 27
6.697674 4.146179 -13.607973 18 20 26
6.706271 4.118812 -13.518152 17 19 25
6.759076 4.118812 -13.518152 22 16 29
6.903010 4.173913 -13.698997 23 17 30
7.027027 4.216216 -13.837838 27 22 30
7.105085 4.230508 -13.884746 26 21 29
7.208191 4.259386 -13.979522 23 16 27
7.337931 4.303448 -14.124138 25 18 29
9.250000 4.875000 -16.000000 25 31 40
9.312500 4.875000 -16.000000 24 30 39
9.375000 4.875000 -16.000000 24 31 35
9.437500 4.875000 -16.000000 24 31 35
9.750000 4.875000 -16.000000 28 31 39
8.907802 4.425532 -14.524822 30 33 41
8.932862 4.409894 -14.473498 27 34 38
8.989399 4.409894 -14.473498 27 34 38
-5.937500 4.812500 -16.000000 100 127 81
-5.875000 4.812500 -16.000000 102 119 69
-5.812500 4.812500 -16.000000 99 116 66
-4.500000 4.812500 -16.000000 42 57 42
-4.437500 4.812500 -16.000000 43 58 43
-4.375000 4.812500 -16.000000 45 56 40
-4.312500 4.812500 -16.000000 45 56 40
-4.250000 4.812500 -16.000000 47 53 41
-4.187500 4.812500 -16.000000 47 53 41
-4.125000 4.812500 -16.000000 45 57 38
-4.062500 4.812500 -16.000000 44 56 37
-4.000000 4.812500 -16.000000 42 57 35
-3.937500 4.812500 -16.000000 42 57 35
-3.875000 4.812500 -16.000000 45 55 39
-3.812500 4.812500 -16.000000 45 55 39
-3.750000 4.812500 -16.000000 48 54 46
-3.687500 4.812500 -16.000000 48 54 46
-3.625000 4.812500 -16.000000 47 52 50
-3.562500 4.812500 -16.000000 47 52 50
-3.500000 4.812500 -16.000000 44 56 37
-3.437500 4.812500 -16.000000 43 55 36
-3.375000 4.812500 -16.000000 41 54 42
-3.312500 4.812500 -16.000000 41 54 42
-3.250000 4.812500 -16.000000 37 57 38
-3.187500 4.812500 -16.000000 57 77 58
-3.125000 4.812500 -16.000000 70 92 63
-3.062500 4.812500 -16.000000 71 93 64
-3.000000 4.812500 -16.000000 71 92 66
-2.937500 4.812500 -16.000000 72 93 67
-2.875000 4.812500 -16.000000 73 93 65
-2.812500 4.812500 -16.000000 71 91 63
-2.750000 4.812500 -16.000000 69 90 64
-2.687500 4.812500 -16.000000 70 91 65
-2.625000 4.812500 -16.000000 70 89 66
-2.562500 4.812500 -16.000000 69 88 65
-2.500000 4.812500 -16.000000 66 93 58
-2.437500 4.812500 -16.000000 67 94 59
-2.375000 4.812500 -16.000000 65 93 53
-2.312500 4.812500 -16.000000 64 92 52
-2.250000 4.812500 -16.000000 66 92 51
-2.187500 4.812500 -16.000000 67 93 52
-2.125000 4.812500 -16.000000 70 88 56
-2.062500 4.812500 -16.000000 70 88 56
-2.000000 4.812500 -16.000000 72 88 59
-1.937500 4.812500 -16.000000 72 88 59
-1.875000 4.812500 -16.000000 69 89 59
-1.812500 4.812500 -16.000000 69 89 59
-1.750000 4.812500 -16.000000 68 87 64
-1.687500 4.812500 -16.000000 66 85 62
-1.625000 4.812500 -16.000000 67 88 62
-1.562500 4.812500 -16.000000 68 89 63
-1.500000 4.812500 -16.000000 69 89 61
-1.437500 4.812500 -16.000000 67 87 59
-1.375000 4.812500 -16.000000 65 90 60
-1.312500 4.812500 -16.000000 62 87 57
-1.250000 4.812500 -16.000000 60 89 58
-1.187500 4.812500 -16.000000 60 89 58
-1.125000 4.812500 -16.000000 65 86 60
-1.062500 4.812500 -16.000000 65 86 60
-1.000000 4.812500 -16.000000 65 86 62
-0.937500 4.812500 -16.000000 65 86 62
-0.875000 4.812500 -16.000000 64 85 61
-0.812500 4.812500 -16.000000 63 84 60
-0.750000 4.812500 -16.000000 65 86 62
-0.687500 4.812500 -16.000000 65 86 62
-0.625000 4.812500 -16.000000 78 78 52
-0.562500 4.812500 -16.000000 80 80 54
-0.062500 4.812500 -16.000000 41 24 24
0.000000 4.812500 -16.000000 40 23 25
0.062500 4.812500 -16.000000 39 22 24
0.125000 4.812500 -16.000000 30 21 26
0.187500 4.812500 -16.000000 26 17 22
0.250000 4.812500 -16.000000 19 11 27
0.312500 4.812500 -16.000000 16 8 24
0.375000 4.812500 -16.000000 18 5 25
1.142857 1.222222 -4.063492 14 21 25
1.158730 1.222222 -4.063492 15 22 26
1.174603 1.222222 -4.063492 21 37 36
1.190476 1.222222 -4.063492 28 44 43
1.206349 1.222222 -4.063492 28 45 36
1.222222 1.222222 -4.063492 28 45 36
1.238095 1.222222 -4.063492 30 45 34
1.253968 1.222222 -4.063492 31 46 35
1.269841 1.222222 -4.063492 33 48 37
1.285714 1.222222 -4.063492 32 47 36
1.313313 1.233233 -4.100100 28 44 41
1.336016 1.239437 -4.120724 26 42 39
1.439673 1.259714 -4.188139 46 30 25
1.456033 1.259714 -4.188139 45 29 24
1.466395 1.254583 -4.171080 42 29 23
2.357367 1.931034 -6.420063 34 31 22
2.382445 1.931034 -6.420063 32 29 20
2.411303 1.934066 -6.430141 30 24 28
2.467409 1.958665 -6.511924 30 24 28
2.492846 1.958665 -6.511924 21 26 26
2.518283 1.958665 -6.511924 22 27 27
2.543720 1.958665 -6.511924 21 35 44
3.790433 2.806378 -9.330297 29 23 25
5.137615 3.767584 -12.525994 29 23 25
5.202454 3.779141 -12.564417 27 21 25
5.251534 3.779141 -12.564417 26 20 24
5.300613 3.779141 -12.564417 21 24 25
5.416149 3.826087 -12.720497 21 24 25
5.517241 3.862069 -12.840125 26 25 36
5.584906 3.874214 -12.880503 27 26 37
5.652997 3.886435 -12.921136 29 24 32
5.739683 3.911111 -13.003175 28 23 31
5.846154 3.948718 -13.128205 30 21 26
5.954692 3.987055 -13.255664 29 20 25
6.065360 4.026144 -13.385621 28 19 24
6.157895 4.052631 -13.473684 28 19 24
6.465754 4.219178 -14.027397 28 19 24
6.611111 4.277778 -14.222222 30 21 26
6.713287 4.307693 -14.321678 25 23 26
7.202952 4.546125 -15.114391 24 17 28
6.954063 4.353357 -14.473498 25 18 29
6.841379 4.248276 -14.124138 22 20 25
6.825939 4.204778 -13.979522 22 20 25
6.720000 4.106667 -13.653334 20 20 24
6.706271 4.066007 -13.518152 20 20 24
6.736842 4.052631 -13.473684 20 16 31
6.834437 4.079470 -13.562914 21 17 32
7.027027 4.162162 -13.837838 24 21 33
7.081081 4.162162 -13.837838 23 20 32
7.183673 4.190476 -13.931973 25 18 25
7.337931 4.248276 -14.124138 26 19 26
3.752443 2.006515 -6.671010 22 29 33
9.312500 4.812500 -16.000000 22 29 40
9.375000 4.812500 -16.000000 24 31 35
9.437500 4.812500 -16.000000 24 31 35
9.750000 4.812500 -16.000000 26 32 41
9.443609 4.631579 -15.398497 27 33 42
9.028571 4.400000 -14.628572 29 32 40
9.217391 4.463768 -14.840580 30 33 41
-5.937500 4.750000 -16.000000 98 126 84
-5.875000 4.750000 -16.000000 101 122 73
-5.812500 4.750000 -16.000000 94 115 66
-4.562500 4.750000 -16.000000 44 55 43
-4.500000 4.750000 -16.000000 41 56 43
-4.437500 4.750000 -16.000000 43 58 45
-4.375000 4.750000 -16.000000 44 58 41
-4.312500 4.750000 -16.000000 44 58 41
-4.250000 4.750000 -16.000000 46 55 42
-4.187500 4.750000 -16.000000 45 54 41
-4.125000 4.750000 -16.000000 41 57 39
-4.062500 4.750000 -16.000000 41 57 39
-4.000000 4.750000 -16.000000 43 57 40
-3.937500 4.750000 -16.000000 42 56 39
-3.875000 4.750000 -16.000000 43 54 40
-3.812500 4.750000 -16.000000 44 55 41
-3.750000 4.750000 -16.000000 45 53 45
-3.687500 4.750000 -16.000000 45 53 45
-3.625000 4.750000 -16.000000 43 53 46
-3.562500 4.750000 -16.000000 44 54 47
-3.500000 4.750000 -16.000000 42 56 39
-3.437500 4.750000 -16.000000 43 57 40
-3.375000 4.750000 -16.000000 41 56 41
-3.312500 4.750000 -16.000000 41 56 41
-3.250000 4.750000 -16.000000 35 58 40
-3.187500 4.750000 -16.000000 56 79 61
-3.125000 4.750000 -16.000000 69 94 64
-3.062500 4.750000 -16.000000 68 93 63
-3.000000 4.750000 -16.000000 70 90 62
-2.937500 4.750000 -16.000000 72 92 64
-2.875000 4.750000 -16.000000 67 92 60
-2.812500 4.750000 -16.000000 67 92 60
-2.750000 4.750000 -16.000000 72 90 56
-2.687500 4.750000 -16.000000 74 92 58
-2.625000 4.750000 -16.000000 74 89 65
-2.562500 4.750000 -16.000000 73 88 64
-2.500000 4.750000 -16.000000 67 93 65
-2.437500 4.750000 -16.000000 70 96 68
-2.375000 4.750000 -16.000000 66 93 56
-2.312500 4.750000 -16.000000 64 91 54
-2.250000 4.750000 -16.000000 66 91 57
-2.187500 4.750000 -16.000000 66 91 57
-2.125000 4.750000 -16.000000 66 89 55
-2.062500 4.750000 -16.000000 67 90 56
-2.000000 4.750000 -16.000000 67 88 62
-1.937500 4.750000 -16.000000 67 88 62
-1.875000 4.750000 -16.000000 69 89 59
-1.812500 4.750000 -16.000000 69 89 59
-1.750000 4.750000 -16.000000 66 89 67
-1.687500 4.750000 -16.000000 65 88 66
-1.625000 4.750000 -16.000000 68 90 61
-1.562500 4.750000 -16.000000 66 88 59
-1.500000 4.750000 -16.000000 68 86 52
-1.437500 4.750000 -16.000000 69 87 53
-1.375000 4.750000 -16.000000 64 89 55
-1.312500 4.750000 -16.000000 61 86 52
-1.250000 4.750000 -16.000000 60 89 58
-1.187500 4.750000 -16.000000 60 89 58
-1.125000 4.750000 -16.000000 66 89 55
-1.062500 4.750000 -16.000000 64 87 53
-1.000000 4.750000 -16.000000 65 87 58
-0.937500 4.750000 -16.000000 65 87 58
-0.875000 4.750000 -16.000000 63 82 59
-0.812500 4.750000 -16.000000 64 83 60
-0.750000 4.750000 -16.000000 67 84 59
-0.687500 4.750000 -16.000000 67 84 59
-0.625000 4.750000 -16.000000 76 79 52
-0.562500 4.750000 -16.000000 80 83 56
-0.500000 4.750000 -16.000000 48 38 24
-0.062500 4.750000 -16.000000 38 24 23
0.000000 4.750000 -16.000000 35 25 23
0.062500 4.750000 -16.000000 34 24 22
0.125000 4.750000 -16.000000 28 23 21
0.187500 4.750000 -16.000000 25 20 18
0.250000 4.750000 -16.000000 18 11 18
0.312500 4.750000 -16.000000 16 9 16
0.375000 4.750000 -16.000000 21 9 24
1.142857 1.206349 -4.063492 16 20 25
1.158730 1.206349 -4.063492 15 19 24
1.174603 1.206349 -4.063492 25 34 35
1.190476 1.206349 -4.063492 33 42 43
1.206349 1.206349 -4.063492 29 46 35
1.222222 1.206349 -4.063492 28 45 34
1.238095 1.206349 -4.063492 31 46 35
1.253968 1.206349 -4.063492 31 46 35
1.269841 1.206349 -4.063492 35 44 41
1.285714 1.206349 -4.063492 34 43 40
1.318593 1.222111 -4.116583 28 41 41
1.428571 1.206349 -4.063492 40 30 16
2.357367 1.905956 -6.420063 34 34 24
2.382445 1.905956 -6.420063 30 30 20
2.407523 1.905956 -6.420063 28 24 27
2.436421 1.908948 -6.430141 28 24 27
2.484945 1.927100 -6.491284 20 28 22
2.514286 1.930159 -6.501587 19 27 21
2.539683 1.930159 -6.501587 19 36 41
3.728507 2.751131 -9.266969 33 30 42
3.756208 2.744921 -9.246050 29 23 27
3.800905 2.751131 -9.266969 29 23 27
5.218462 3.741539 -12.603077 27 23 26
5.251534 3.730061 -12.564417 27 23 26
5.316923 3.741539 -12.603077 24 22 27
5.416149 3.776397 -12.720497 25 23 28
5.517241 3.811912 -12.840125 28 24 39
5.602524 3.835962 -12.921136 28 24 39
5.670886 3.848101 -12.962026 27 27 27
5.739683 3.860317 -13.003175 27 27 27
5.864952 3.909968 -13.170418 30 21 24
5.954692 3.935275 -13.255664 30 21 24
6.085246 3.986885 -13.429508 31 21 21
6.410959 4.164383 -14.027397 29 19 19
6.555555 4.222222 -14.222222 29 19 22
7.261992 4.487085 -15.114391 23 21 28
6.841379 4.193103 -14.124138 24 19 27
6.849315 4.164383 -14.027397 22 17 25
6.765100 4.080537 -13.744967 17 16 23
6.773334 4.053333 -13.653334 20 19 26
6.736842 4.000000 -13.473684 20 18 32
6.789474 4.000000 -13.473684 20 18 32
6.864686 4.013201 -13.518152 23 21 26
7.081081 4.108108 -13.837838 24 22 27
7.183673 4.136055 -13.931973 25 18 25
5.296296 2.814815 -9.481482 25 28 38
3.752443 1.980456 -6.671010 23 28 40
3.778502 1.980456 -6.671010 22 27 39
3.810767 1.983687 -6.681892 25 27 33
9.187500 4.750000 -16.000000 26 28 34
9.250000 4.750000 -16.000000 25 28 38
9.312500 4.750000 -16.000000 26 29 39
9.375000 4.750000 -16.000000 25 32 34
9.625000 4.750000 -16.000000 25 32 34
9.687500 4.750000 -16.000000 26 33 35
9.750000 4.750000 -16.000000 26 34 40
9.443609 4.571429 -15.398497 26 34 40
9.362963 4.503704 -15.170370 30 32 40
9.352942 4.470588 -15.058824 30 32 40
-5.937500 4.687500 -16.000000 103 127 82
-5.875000 4.687500 -16.000000 101 119 76
-5.812500 4.687500 -16.000000 96 114 71
-4.562500 4.687500 -16.000000 45 54 43
-4.500000 4.687500 -16.000000 42 56 41
-4.437500 4.687500 -16.000000 44 58 43
-4.375000 4.687500 -16.000000 43 57 42
-4.312500 4.687500 -16.000000 43 57 42
-4.250000 4.687500 -16.000000 45 56 44
-4.187500 4.687500 -16.000000 44 55 43
-4.125000 4.687500 -16.000000 41 55 40
-4.062500 4.687500 -16.000000 41 55 40
-4.000000 4.687500 -16.000000 44 55 41
-3.937500 4.687500 -16.000000 44 55 41
-3.875000 4.687500 -16.000000 43 53 44
-3.812500 4.687500 -16.000000 43 53 44
-3.750000 4.687500 -16.000000 40 53 43
-3.687500 4.687500 -16.000000 42 55 45
-3.625000 4.687500 -16.000000 44 55 39
-3.562500 4.687500 -16.000000 44 55 39
-3.500000 4.687500 -16.000000 43 56 46
-3.437500 4.687500 -16.000000 42 55 45
-3.375000 4.687500 -16.000000 43 57 42
-3.312500 4.687500 -16.000000 43 57 42
-3.250000 4.687500 -16.000000 38 56 40
-3.187500 4.687500 -16.000000 56 74 58
-3.125000 4.687500 -16.000000 73 93 65
-3.062500 4.687500 -16.000000 69 89 61
-3.000000 4.687500 -16.000000 70 92 61
-2.937500 4.687500 -16.000000 70 92 61
-2.875000 4.687500 -16.000000 67 94 61
-2.812500 4.687500 -16.000000 66 93 60
-2.750000 4.687500 -16.000000 70 90 60
-2.687500 4.687500 -16.000000 71 91 61
-2.625000 4.687500 -16.000000 71 91 63
-2.562500 4.687500 -16.000000 70 90 62
-2.500000 4.687500 -16.000000 66 91 61
-2.437500 4.687500 -16.000000 64 89 59
-2.375000 4.687500 -16.000000 67 92 58
-2.312500 4.687500 -16.000000 67 92 58
-2.250000 4.687500 -16.000000 65 90 60
-2.187500 4.687500 -16.000000 65 90 60
-2.125000 4.687500 -16.000000 66 88 59
-2.062500 4.687500 -16.000000 68 90 61
-2.000000 4.687500 -16.000000 65 89 64
-1.937500 4.687500 -16.000000 65 89 64
-1.875000 4.687500 -16.000000 68 89 63
-1.812500 4.687500 -16.000000 67 88 62
-1.750000 4.687500 -16.000000 64 89 66
-1.687500 4.687500 -16.000000 61 86 63
-1.625000 4.687500 -16.000000 63 88 58
-1.562500 4.687500 -16.000000 63 88 58
-1.500000 4.687500 -16.000000 64 85 52
-1.437500 4.687500 -16.000000 68 89 56
-1.375000 4.687500 -16.000000 66 88 57
-1.312500 4.687500 -16.000000 64 86 55
-1.250000 4.687500 -16.000000 63 88 58
-1.187500 4.687500 -16.000000 65 90 60
-1.125000 4.687500 -16.000000 65 87 56
-1.062500 4.687500 -16.000000 63 85 54
-1.000000 4.687500 -16.000000 62 86 59
-0.937500 4.687500 -16.000000 62 86 59
-0.875000 4.687500 -16.000000 64 84 56
-0.812500 4.687500 -16.000000 64 84 56
-0.750000 4.687500 -16.000000 67 83 56
-0.687500 4.687500 -16.000000 67 83 56
-0.625000 4.687500 -16.000000 75 78 51
-0.562500 4.687500 -16.000000 79 82 55
-0.500000 4.687500 -16.000000 47 31 24
-0.062500 4.687500 -16.000000 41 24 24
0.000000 4.687500 -16.000000 32 27 21
0.062500 4.687500 -16.000000 30 25 19
0.125000 4.687500 -16.000000 30 22 19
0.187500 4.687500 -16.000000 26 18 15
0.250000 4.687500 -16.000000 22 13 20
0.312500 4.687500 -16.000000 18 9 16
0.375000 4.687500 -16.000000 19 8 25
1.152130 1.217039 -4.154158 19 18 27
1.156626 1.204819 -4.112450 18 20 26
1.158730 1.190476 -4.063492 18 20 26
1.174603 1.190476 -4.063492 26 34 38
1.190476 1.190476 -4.063492 34 42 46
1.206349 1.190476 -4.063492 32 44 42
1.222222 1.190476 -4.063492 32 44 42
1.238095 1.190476 -4.063492 35 42 44
1.253968 1.190476 -4.063492 35 42 44
1.269841 1.190476 -4.063492 38 43 41
1.344398 1.244813 -4.248963 40 45 43
1.418144 1.251303 -4.271116 25 36 37
1.434828 1.251303 -4.271116 42 32 30
1.450000 1.250000 -4.266667 42 32 30
2.386185 1.883830 -6.430141 29 28 23
2.411303 1.883830 -6.430141 28 23 29
2.467409 1.907790 -6.511924 28 23 29
2.488889 1.904762 -6.501587 18 27 24
2.518283 1.907790 -6.511924 19 28 25
3.692308 2.714932 -9.266969 40 33 51
3.720090 2.708804 -9.246050 39 32 50
3.747748 2.702703 -9.225225 33 24 29
3.783784 2.702703 -9.225225 32 23 28
5.218462 3.692308 -12.603077 27 23 26
5.267692 3.692308 -12.603077 27 23 26
5.316923 3.692308 -12.603077 21 23 27
5.433022 3.738318 -12.760124 19 21 25
5.534591 3.773585 -12.880503 47 60 52
5.602524 3.785489 -12.921136 64 77 69
5.688889 3.809524 -13.003175 45 43 46
5.757962 3.821656 -13.044586 25 23 26
5.883871 3.870968 -13.212903 29 20 27
5.993485 3.908795 -13.342019 28 19 26
6.105263 3.947368 -13.473684 30 20 23
6.912892 4.181185 -14.271777 22 21 28
6.849315 4.109589 -14.027397 21 20 27
6.810811 4.054054 -13.837838 21 20 27
6.818792 4.026845 -13.744967 20 19 26
6.736842 3.947368 -13.473684 20 19 26
6.789474 3.947368 -13.473684 20 19 26
6.842105 3.947368 -13.473684 22 22 24
5.333333 2.777778 -9.481482 22 28 44
3.797054 1.963993 -6.703764 23 29 45
3.816993 1.960784 -6.692811 27 29 35
9.187500 4.687500 -16.000000 26 28 34
9.250000 4.687500 -16.000000 26 29 37
9.312500 4.687500 -16.000000 26 29 37
9.625000 4.687500 -16.000000 26 32 39
9.687500 4.687500 -16.000000 27 33 40
9.750000 4.687500 -16.000000 27 33 42
9.812500 4.687500 -16.000000 27 33 42
9.468164 4.494382 -15.340824 30 33 43
9.457249 4.460967 -15.226766 29 32 42
-5.937500 4.625000 -16.000000 103 127 82
-5.875000 4.625000 -16.000000 106 121 83
-5.812500 4.625000 -16.000000 92 107 69
-1.944363 1.733528 -5.997072 48 38 24
-4.562500 4.625000 -16.000000 44 53 42
-4.500000 4.625000 -16.000000 44 55 41
-4.437500 4.625000 -16.000000 46 57 43
-4.375000 4.625000 -16.000000 43 56 44
-4.312500 4.625000 -16.000000 43 56 44
-4.250000 4.625000 -16.000000 47 55 47
-4.187500 4.625000 -16.000000 46 54 46
-4.125000 4.625000 -16.000000 44 55 41
-4.062500 4.625000 -16.000000 44 55 41
-4.000000 4.625000 -16.000000 45 54 41
-3.937500 4.625000 -16.000000 48 57 44
-3.875000 4.625000 -16.000000 49 55 43
-3.812500 4.625000 -16.000000 47 53 41
-3.750000 4.625000 -16.000000 45 54 43
-3.687500 4.625000 -16.000000 45 54 43
-3.625000 4.625000 -16.000000 46 56 38
-3.562500 4.625000 -16.000000 45 55 37
-3.500000 4.625000 -16.000000 45 54 43
-3.437500 4.625000 -16.000000 45 54 43
-3.375000 4.625000 -16.000000 46 57 43
-3.200000 4.467925 -15.456604 44 55 41
-3.116105 4.434457 -15.340824 38 58 43
-3.044776 4.417911 -15.283582 56 76 61
-3.007519 4.451128 -15.398497 69 93 68
-2.947368 4.451128 -15.398497 67 91 66
-3.000000 4.625000 -16.000000 67 91 66
-2.937500 4.625000 -16.000000 67 91 66
-2.875000 4.625000 -16.000000 69 91 62
-2.812500 4.625000 -16.000000 69 91 62
-2.750000 4.625000 -16.000000 69 91 60
-2.687500 4.625000 -16.000000 70 92 61
-2.625000 4.625000 -16.000000 68 93 61
-2.562500 4.625000 -16.000000 66 91 59
-2.500000 4.625000 -16.000000 68 90 61
-2.437500 4.625000 -16.000000 69 91 62
-2.375000 4.625000 -16.000000 67 92 58
-2.312500 4.625000 -16.000000 67 92 58
-2.250000 4.625000 -16.000000 66 90 63
-2.187500 4.625000 -16.000000 64 88 61
-2.125000 4.625000 -16.000000 65 87 58
-2.062500 4.625000 -16.000000 69 91 62
-2.000000 4.625000 -16.000000 67 92 62
